# .PCD v0.7 - Point Cloud Data file format
VERSION 0.7
FIELDS x y z
SIZE 4 4 4
TYPE F F F
COUNT 1 1 1
WIDTH 3020
HEIGHT 1
VIEWPOINT 0 0 0 1 0 0 0
POINTS 3020
DATA ascii
14449 -254.00002 806
14426 -264 833
14424 -276 861
14427 -287 890
14434 -299 918
14522 -313 952
14570 -325 984
14617 -338 1015
14624 -350 1044
14600 -362 1071
14904 -382 1122
15006 -397 1158
15094 -412 1194
15184 -427 1230
17851 -518 1480
18052 -539 1531
18188 -559 1577
18394 -581 1630
18645 -605 1687
18664 -622 1723
18681 -639 1759
18685 -656 1795
18693 -673 1831
18716 -690 1868
18719 -707 1902
18707 -724 1936
18718 -741 1971
18716 -758 2005.0001
18734 -776 2040.9999
18734 -793 2076
18752 -811 2111
18749 -829 2145
18760 -846 2180
18748 -863 2213
18760 -882 2248
18764 -900 2282
18779 -918 2317
18779 -936 2351
18800 -956 2387
18802 -974 2420
18861 -995 2461
19220 -1032 2540
14959 -818 2003
15071 -839 2045.0001
14940 -846 2053
14918 -859 2075
14952 -876 2105
14992 -893 2136
15024 -910 2167
15032 -926 2194
15052 -942 2222
15093 -959 2253
15109 -976 2281
15274 -1002 2331
27031 -1800 4170
27346 -1848 4263
0 0 0
0 0 0
28756 -2030 4622
28922 -2071 4695
28924 -2101 4742
28951 -2133 4793
28963 -2163 4840
28985 -2195 4890
14813 -1136 2522
14748 -1146 2534
14787 -1165 2563
14739 -1176 2578
14774 -1194 2607
14871 -1217 2647
14860 -1231 2666
14827 -1244 2683
14830 -1259 2705
14814 -1273 2725
14835 -1291 2750
14907 -1312 2786
14833 -1321 2793
14756 -1330 2801
14756 -1345 2822
14719 -1357 2836
14679 -1368 2849
14645 -1380 2863
14649 -1396 2885
14915 -1437 2958
14986 -1459 2992
14998 -1476 3015
15005 -1492 3037
15035 -1511 3064
15077 -1531 3093
15149 -1554 3128
15114 -1566 3141
15106 -1581 3159
15102 -1596 3178
15104 -1612 3198
15153 -1632 3228
15326 -1667 3284
15511 -1703 3344
15589 -1728 3380
15560 -1741 3393
15532 -1754 3406
15626 -1780 3446
15637 -1797 3467
29459 -3417 6568
45189 -5287 10129
45174 -5332 10178
45164 -5377 10229
47240 -5671 10754
47258 -5721 10812
29609 -3615 6808
29602 -3643 6840
30809 -3823 7153
47229 -5908 11018
48812 -6155 11443
48813 -6204 11497
48827 -6254 11551
49120 -6341 11673
49075 -6382 11713
49064 -6430 11762
29614 -3910 7130
49053 -6526 11861
49057 -6575 11911
49022 -6617 11952
28608 -3889 7003
28602 -3917 7030
49005 -6759 12093
48980 -6802 12134
28568 -3995 7104
28462 -4007 7104
28646 -4060 7177
48939 -6984 12304
48936 -7030 12349
48933 -7075 12390
48914 -7119 12430
48905 -7163 12469
48890 -7206 12507
48900 -7253 12550
48880 -7295 12587
48841 -7334 12617
48799 -7373 12646
48832 -7423 12694
48842 -7467 12735
48834 -7512 12770
48835 -7556 12808
48827 -7597 12843
48815 -7639 12876
48803 -7681 12908
48803 -7724 12943
48793 -7764 12975
48779 -7804 13005
48784 -7847 13039
48774 -7888 13069
48765 -7928 13099
48685 -7957 13109
48692 -7999 13143
48706 -8042 13177
48746 -8088.9995 13217
48737 -8128.0005 13244
48732 -8168 13271
48732 -8208 13299
48731 -8246 13326
48723 -8284 13351
48710 -8321 13373
48711 -8359 13400
48713 -8398 13426
48700 -8434 13447
48695 -8471 13469
48685 -8507 13490
48673 -8542 13509
48680 -8580 13533
48678 -8616 13555
48689 -8654 13579
48675 -8687 13595
48668 -8722 13613
48673 -8758 13633
48655 -8790 13647
48669 -8826 13669
48660 -8859 13683
48653 -8891 13698
48667 -8928 13718
48610 -8951 13717
48663 -8994 13747
48642 -9022 13756
48643 -9055 13770
48658 -9088 13787
48622 -9112 13791
48398 -9102 13739
48327 -9119 13730
48326 -9149 13740
48336 -9181 13753
48331 -9210 13761
48331 -9238 13770
48338 -9268 13781
48370 -9303 13797
48349 -9327 13799
48338 -9353 13802
48334 -9380 13807
48311 -9401 13806
48342 -9433 13819
48327 -9457 13819
48339 -9485 13826
48367 -9516 13837
48342 -9535 13833
48356 -9563 13839
48339 -9583 13836
48339 -9607 13836
48343 -9631 13837
48342 -9654 13836
48371 -9682 13844
48358 -9702 13839
48356 -9723 13835
48343 -9742 13829
48338 -9762 13824
29491 -5968 8432
29499 -5981 8432
29474 -5988 8421
48377 -9850 13816
48391 -9871 13814
48366 -9883 13801
48402 -9909 13803
48378 -9922 13788
48381 -9940 13780
48377 -9957 13770
48383 -9975 13761
48380 -9990 13750
48410 -10011 13748
48399 -10023 13735
48402 -10040 13722
48398 -10052 13709
48417 -10071 13701
48415 -10084 13687
0 0 0
0 0 0
0 0 0
29181 -6107 8213
29149 -6108 8194
29128 -6110 8177
29153 -6122 8174
29090 -6114 8145.0005
29163 -6135 8154.0005
29198 -6148 8152.0005
29140 -6141 8123.9995
29183 -6155 8123
29180 -6159 8111
29161 -6159 8093.0005
29156 -6162 8078
29110 -6157 8050.9995
29200 -6180 8062.0005
29199 -6182 8048.0005
29184 -6182 8029.0005
29200 -6188 8017.9995
29261 -6204 8019
29126 -6177 7967
29236 -6202 7981
29213 -6199 7959
29288 -6217 7962
29206 -6201 7923
0 0 0
0 0 0
0 0 0
0 0 0
0 0 0
0 0 0
29195 -6198 7794
29217 -6202 7780
29287 -6215 7779
29271 -6210 7755
29245 -6203 7728
29356 -6224 7737
29302 -6210 7702
29368 -6221 7698
29251 -6193 7645
29296 -6200 7635
29295 -6195 7613
29327 -6199 7599
29282 -6185 7564
29307 -6186 7548
29419 -6204 7553
29344 -6183 7510
29348 -6179 7487
29278 -6158 7446
29291 -6155 7424
29040 -6096 7336
29162 -6115 7342
29060 -6087 7291
29256 -6121 7315
29253 -6114 7288
29405 -6137 7300
29307 -6109 7249
29380 -6116 7241
29442 -6120 7230
29414 -6106 7195
0 0 0
0 0 0
0 0 0
28798 -5941 6935
0 0 0
0 0 0
0 0 0
0 0 0
28796 -5888 6793
28871 -5892 6781
28840 -5873 6745
28793 -5852 6704
28834 -5849 6683
28809 -5830 6647
28383 -5731 6520
28434 -5730 6501
28224 -5674 6423
27838 -5583 6306
27835 -5569 6275
27894 -5567 6257
27829 -5540 6212
27872 -5534 6191
27867 -5518 6159
30863 -6095 6786
30841 -6074 6746
30867 -6062 6717
30845 -6041 6677
30850 -6024 6642
30877 -6012 6612
30896 -5997 6581
30893 -5978 6544
30893 -5959 6507
28716 -5520 6015
28821 -5523 6002
28794 -5499 5962
28725 -5467 5913
28549 -5415 5842
30963 -5851 6297
27070 -5097 5473
27035 -5072 5431
26979 -5043 5388
26983 -5025 5355
26974 -5004 5319
26989 -4987 5287
26991 -4967 5254
27003 -4949 5222
27014 -4930 5189
27058 -4918 5163
27285 -4938 5171
27435 -4944 5164
27649 -4960 5169
27869 -4977 5173
28045 -4985 5170
28358 -5018 5191
28815 -5075 5237
28907 -5067 5215
28887 -5039 5173
28902 -5016 5138
28919 -4994 5103
28899 -4966 5061
28897 -4940 5021
28829 -4902 4972
28581 -4834 4890
28171 -4739 4782
24828 -4154 4181
24749 -4117 4134
24768 -4097 4103
24743 -4070.0002 4065
24754 -4047.9998 4033
24756 -4024.0002 4000
24761 -4001 3966
24753 -3975 3931
24674 -3938 3884
24288 -3851 3789
22687 -3574 3508
22628 -3541 3467
22531 -3503 3421
22484 -3472 3383
22457 -3445 3347
22465 -3422 3317
20093 -3039 2938
20141 -3025 2917
20176 -3008 2893
20173 -2986 2865
20182 -2965 2838
20200 -2945 2812
20205 -2923 2784
20183 -2897 2752
19843 -2826 2678
18974 -2681 2534
18807 -2635 2485
18761 -2607 2452
18737 -2582 2422
18747 -2560 2397
18759 -2540 2371
18723 -2512 2340
18782 -2498 2320
18782 -2475 2294
18800 -2454 2269
18763 -2426 2238
18768 -2404 2211
18780 -2382 2186
18790 -2359 2160
18788 -2335 2133
18815 -2314 2108
18811 -2290 2081
18815 -2265 2054
18789 -2238 2023.9999
18785 -2213 1997
18770 -2186 1968
18775 -2162 1942
18747 -2134 1912
16180 -1820 1627
16205.999 -1801 1606
16167 -1774 1579
16083 -1743 1548
16063.999 -1719 1523
15977 -1688 1492
15898 -1657 1462
15805 -1626 1431
15729 -1596 1402
15664 -1567 1373
15573 -1537 1344
15541 -1511 1319
15516 -1487 1294
15488 -1462 1270
15441 -1435 1245
15391 -1408 1219
15367 -1383 1195
15344 -1359 1172
15293 -1332 1146
15269 -1307 1123
15226 -1281 1098
15181 -1254 1074
15143 -1228 1050
15120 -1204 1027
15087 -1178 1003.9999
15048 -1152 980
15004 -1126 957
14960 -1099 933
14920 -1074 910
14894 -1049 888
14839 -1021.9999 864
14794 -995 841
14766 -970 819
14744 -946 798
14707 -921 776
14681 -896 755
14656 -871 733
14616 -845 712
14586 -820 691
14587 -796 671
14541 -770 649
14551 -746 630
14571 -724 611
14601 -701 593
14627 -679 575
14638 -655 556
14586 -629 535
14558 -604 515
11884 -473 404
11844 -452 388
11882 -433 373
11818 -411 356
11830 -391 341
11803 -370 325
11794 -350 310
11788 -330 294
11796 -309 279
11789 -290 264
11802 -269 249
11795 -249 234
11799 -229 220
11806 -209 205
11797 -188 190
11776 -166 175
11702 -145 159
11649 -124 144
11613 -103 130
11551 -82 115
11527 -62 101
11453 -41 86
11418 -21 72
11365 0 58
11332 19 44
11266 39 31
11236 59 17
11197 79 4
11150 99 -8
11116 119 -21
11063 138 -34
10989 157 -46
10880 175 -58
10773 193 -70
10634 210 -81
10489 226 -92
10394 243 -103
10375 262 -114
10365 280 -126
10349 299 -137
10365 319 -148
10355 337 -159
10362 357 -171
10362 376 -182
10362 395 -193
10371 415 -204
10365 433 -215
10375 453 -226
10368 472 -237
10377 492 -248
10379 510.99997 -259
10387 531 -269
10371 549 -280
10376 569 -290
10385 589 -301
10388 608 -311
10390 628 -321
10382 647 -331
10393 667 -342
10389 687 -352
10384 705 -362
10390 725 -372
10404 745 -382
10394 764 -391
10397 784 -401
10392 803 -410
10403 824 -420
10417 845 -431
10440 866 -441
10455 887 -451
10456 907 -460
10493 929 -471
10502 950 -481
10516 971 -490
10544 993 -501
10553 1014.0001 -510
10581 1036 -520
10596 1057 -530
10598 1077 -539
10623 1099 -548
10631 1120 -558
10661 1143 -568
10667 1164 -576
10684 1186 -586
10711 1208 -596
10726 1230 -605
10733 1251 -613
10758 1274 -623
10767 1295 -632
10788 1318 -641
10815 1341 -650
10820 1362 -659
10835 1384 -667
10846 1405 -676
10873 1429 -685
10885 1450 -693
10906 1473 -702
10907 1493 -710
10917 1515 -718
10915 1535 -725
10928 1557 -733
10895 1572 -738
10866 1588 -743
10856 1606 -749
10838 1623 -755
10815 1639 -760
10785 1654 -764
10773 1672 -770
10734 1685 -774
10716 1702 -779
10731 1724 -786
10704 1738 -790
10692 1756 -795
10680 1773 -801
10652 1787 -805
10651 1806 -810
10623 1820 -814
10626 1839 -820
10611 1855 -824
10602 1873 -829
10581 1887 -832
10553 1901 -836
10518 1913 -838
10523 1932 -844
10543 1954 -850
10508 1966 -852
10497 1982 -856
10484 1998 -860
10480 2015.0001 -864
10469 2030.9999 -868
10464 2048 -872
10440 2060 -875
10433 2077 -878
10424 2093 -882
10406 2106 -885
10402 2123 -888
10366 2133 -889
10370 2151 -894
10360 2166 -897
10357 2182 -900
10336 2194 -902
10346 2214 -907
10333 2228 -909
10334 2245 -913
10307 2255 -914
10310 2273 -917
10303 2287 -920
10294 2302 -922
10279 2315 -924
10274 2330 -927
10259 2343 -928
10259 2359 -931
10238 2370 -932
10225 2383 -934
10244 2403 -938
10227 2415 -939
10234 2432 -942
10229 2446 -944
10223 2460 -946
10208 2472 -947
10205 2486 -949
10193 2498 -950
10188 2512 -952
10197 2529 -955
10196 2543 -956
10172 2552 -956
10179 2568 -959
10181 2583 -960
10150 2590 -960
10143 2603 -960
10132 2614 -961
10160 2635 -965
10156 2649 -966
10149 2661 -967
10138 2672 -967
10143 2687 -969
10137 2699 -969
10145 2714 -971
10135 2725 -971
10126 2736 -971
10121 2748 -972
9834 2683 -945
9436 2587 -907
9284 2557 -893
9119 2523 -878
9104 2530 -877
9090 2537 -876
9072 2544 -875
9057 2550 -874
9043 2558 -873
9038 2567 -873
9020 2572 -871
9000 2577 -869
8998 2587 -869
8979 2592 -867
8968 2599 -866
8963 2608 -866
8950 2615 -864
8929 2618 -862
8928 2628 -862
8913 2633 -860
8896 2637 -858
8889 2645 -857
8868 2648 -855
8867 2657 -854
8867 2666 -853
8876 2678 -854
8885 2689 -854
8877 2696 -852
8898 2711 -854
8896 2719 -853
8908 2731 -853
8914 2741 -853
8929 2754 -853
8921 2760 -851
8924 2769 -851
8933 2780 -850
8941 2790 -850
8947 2800 -849
8956 2810 -849
8955 2818 -848
8961 2827 -847
8972 2838 -846
8970 2844 -845
8976 2853 -844
8971 2859 -842
8988 2871 -842
8991 2879 -841
9007 2890 -840
9017 2900 -840
8996 2900 -836
9008 2910 -835
9013 2918 -834
9020 2926 -833
9019 2932 -831
9027 2940 -830
9035 2949 -828
9032 2953 -826
9037 2960 -824
9046 2969 -823
9042 2973 -820
9048 2980 -819
9038 2982 -816
9065 2995 -816
9053 2996 -812
9064 3004 -811
9061 3008 -808
9068 3015 -806
9069 3019 -804
9081 3027 -802
9078 3030 -799
9086 3037 -797
9071 3036 -793
9069 3039 -791
9083 3047 -789
9087 3052 -787
9090 3056 -784
9093 3060 -782
9086 3061 -778
9096 3067 -776
9075 3063 -771
9091 3071 -769
9098 3075 -767
9099 3078 -764
9089 3077 -760
9092 3080 -757
9095 3083 -754
9097 3086 -751
9084 3083 -747
9095 3088 -744
9087 3087 -740
9098 3092 -738
9110 3098 -735
9100 3095 -731
9109 3099 -729
9112 3101 -725
9104 3099 -721
9130 3108 -720
9126 3108 -716
9133 3110 -713
9154 3117 -711
9156 3118 -707
9165 3121 -704
9181 3126 -702
9174 3124 -697
9196 3131 -695
9228 3141 -694
9239 3144 -691
9283 3158 -690
9362 3184 -692
9497 3229 -698
9590 3259 -701
9243 3139 -671
9264 3145 -669
9306 3158 -667
9276 3146 -661
9311 3156 -660
9303 3151 -655
9697 3282 -678
10632 3596 -739
10820 3656 -747
10848 3663 -744
10854 3662 -739
10876 3666 -735
10904 3672 -732
10931 3677 -729
10921 3670 -723
10949 3675 -720
10972 3679 -716
10987 3679 -712
10987 3675 -707
11012 3678 -703
11026 3678 -699
11017 3671 -693
11052 3677 -689
11050 3671 -684
11082 3676 -680
11091 3674 -675
11126 3679 -672
11118 3671 -666
11104 3660 -659
11138 3665 -656
11169 3669 -652
11168 3662 -647
11191 3662 -642
11188 3655 -636
11218 3657 -632
11241 3657 -628
11254 3654 -623
11276 3654 -618
11293 3652 -613
11311 3650 -608
11342 3652 -605
11334 3641 -598
11379 3647 -595
11403 3646 -590
11404 3638 -584
11433 3638 -579
11457 3636 -575
11472 3632 -570
11479 3625 -564
11487 3618 -558
11524 3619 -554
11533 3612 -549
11545 3606 -543
11550 3597 -537
11574 3595 -532
11601 3593 -528
11615 3586 -522
11642 3584 -517
11667 3580 -512
11697 3578 -507.00003
11704 3569 -501
11702 3557 -495
11740 3556 -490
11751 3548 -485
11769 3541 -479
11793 3536 -474
11802 3527 -468
11828 3522 -463
11832 3510 -457
11879 3512 -453
11867 3495 -446
11879 3485 -440
11902 3479 -435
11908 3467 -429
11952 3466 -424
12012 3470 -420
12040 3464 -415
12031 3447 -408
12027 3431 -402
12026 3416 -396
12015 3399 -389
11992 3377 -382
11986 3361 -376
11973 3342 -369
11963 3324 -363
11950 3306 -356
11929 3285 -350
11920 3267 -343
11910 3248 -337
11889 3227 -331
11870 3206 -324
11864 3189 -318
11853 3170 -312
11830 3147 -305
11810 3126 -299
11799 3107 -293
11785 3086 -286
11782 3069 -281
11762 3047 -274
11732 3023 -268
11721 3003 -262
11733 2989 -257
11699 2964 -250
11684 2942 -244
11679 2924 -239
11648 2899 -232
11635 2879 -227
11631 2860 -221
11614 2838 -216
11593 2815 -210
11579 2794 -204
11555 2771 -199
11553 2752 -193
11527 2728 -187
11520 2708 -182
11500 2685 -177
11489 2664 -172
11474 2642 -166
11455 2619 -161
11449 2599 -156
11424 2575 -151
11420 2555 -146
11402 2532 -141
11376 2507 -136
11372 2488 -131
11349 2464 -126
11333 2441 -121
11313 2418 -116
11294 2394 -111
11294 2375 -107
11273 2352 -102
11248 2327 -98
11233 2305 -93
11220 2282 -89
11203 2259 -84
11190 2237 -80
11165 2212 -76
11154 2190 -71
11146 2168 -67
11130 2145 -63
11119 2123 -59
11094 2098 -55
11087 2077 -51
11058 2051 -47
11039 2027 -44
11029 2005.0001 -40
11022 1984 -36
11003 1960 -33
10987 1937 -29
10973 1914 -26
10955 1890 -22
10937 1867 -19
10924 1844 -16
10904 1820 -12
10886 1796 -9
10879 1774 -6
10856 1750 -3
10856 1729 0
10851 1707 2
10837 1684 5
10837 1664 7
10850 1644 10
10857 1625 13
10888 1608 15
10956 1597 18
11007 1583 21
11085 1572 23
11119 1555 26
11171 1540 29
11203 1522 31
11224 1503 33
11258 1484 35
11330 1471 38
11370 1453 40
11394 1433 42
11392 1410 44
11401 1389 46
11403 1366 48
11419 1344 50
11418 1321 52
11422 1298 53
11434 1276 55
11434 1252 56
11438 1229 58
11437 1206 59
11439 1183 60
11445 1159 62
11454 1137 63
11449 1113 64
11442 1088 65
11452 1066 66
11463 1043 67
11440 1016.9999 67
11458 995 68
11445 970 68
11446 947 69
11454 923 70
11449 899 70
11448 875 70
11451 851 71
11453 827 71
11455 803 71
11459 779 71
11451 755 71
11449 730 70
11441 705 70
11445 681 70
11434 657 70
11451 634 69
11437 608 68
11431 584 68
11428 559 67
11426 535 66
11431 510.99997 66
11415 486 65
11424 462 64
11423 438 63
11417 413 61
11403 388 60
11396 364 59
11375 339 57
11388 316 56
11376 291 54
11373 266 52
11360 242 51
11358 217 49
11339 193 47
11349 169 45
11334 144 43
11324 120 41
11318 96 39
11313 71 36
11311 47 34
11286 23 32
11289 0 29
11263 -24 26
11260 -48 24
11249 -72 21
11236 -95 18
11230 -119 16
11220 -143 13
11208 -166 10
11193 -190 7
11192 -214 3
11165 -237 0
11155 -260 -2
11153 -284 -5
11133 -306 -9
11123 -330 -12
11103 -352 -16
11074 -374 -19
11037 -396 -23
11017 -418 -27
10997 -441 -30
10964 -462 -34
10929 -484 -38
10909 -505.99997 -42
10860 -526 -46
10820 -547 -50
10763 -566 -54
10674 -584 -57
10648 -605 -61
10561 -622 -65
10510 -641 -69
10456 -659 -73
10454 -681 -78
10428 -701 -82
10439 -723 -87
10428 -743 -91
10417 -764 -96
10414 -785 -100
10410 -806 -105
10422 -828 -110
10423 -850 -115
10417 -871 -120
10406 -891 -125
10411 -912 -130
10383 -930 -135
10389 -952 -140
10305 -964 -144
10238 -979 -148
10219 -997 -153
10232 -1019.0001 -159
10231 -1039 -164
10233 -1060 -170
10229 -1080 -175
10219 -1098 -181
10220 -1119 -186
10196 -1136 -191
10197 -1156 -197
10203 -1177 -203
10203 -1196 -209
10199 -1216 -215
10188 -1235 -220
10198 -1255 -227
10213 -1277 -233
10209 -1296 -239
10208 -1315 -245
10210 -1335 -250.99998
10219 -1355 -258
10230 -1376 -264
10223 -1395 -270
10225 -1414 -277
10231 -1434 -283
10229 -1453 -290
10233 -1472 -296
10236 -1492 -303
10247 -1512 -310
10252 -1532 -317
10251 -1550 -323
10253 -1569 -330
10254 -1588 -337
10258 -1607 -344
10260 -1626 -351
10272 -1647 -358
10264 -1663 -365
10271 -1683 -372
10282 -1703 -379
10298 -1724 -387
10309 -1744 -395
10329 -1765 -403
10350 -1787 -411
10368 -1808 -419
10394 -1830 -427
10415 -1852 -435
10427 -1873 -443
10439 -1892 -451
10468 -1915 -460
10488 -1937 -468
10506 -1958 -477
10522 -1978 -485
10542 -2000 -494
10563 -2020.9999 -501.99997
10592 -2043.9999 -512
10610 -2065 -520
10615 -2083 -528
10633 -2104 -537
10643 -2123 -546
10650 -2142 -554
10652 -2159 -562
10661 -2178 -570
10686 -2200 -580
10700 -2219 -588
10727 -2242 -598
10755 -2264 -608
10757 -2281 -616
10788 -2304 -626
10819 -2327 -636
10813 -2342 -644
10828 -2361 -653
7051 -1548 -430
7034 -1555 -435
7001 -1558 -438
7003 -1568 -443
7005 -1579 -449
6951 -1577 -451
6922 -1580 -454
6938 -1593 -461
6933 -1602 -466
6908 -1606 -470
6895 -1612 -474
6880 -1618 -478
6893 -1631 -484
6884 -1638 -489
6869 -1643 -493
6859 -1650 -498
6873 -1663 -504
6881 -1674 -510
6868 -1679 -515
6872 -1689 -520
6882 -1700 -526
6878 -1709 -531
6887 -1719 -537
6863 -1722 -541
6889 -1737 -548
6887 -1745 -553
6891 -1754 -559
10311 -2637 -844
10296 -2646 -851
10198 -2633 -851
10247 -2657 -863
10213 -2660 -868
10206 -2670 -875
10180 -2675 -881
10177 -2685 -888
10165 -2694 -895
10144 -2699 -901
10127 -2706 -907
10100 -2710 -913
10099 -2720 -920
10060 -2720 -924
10053 -2729 -931
10034 -2734 -937
10002 -2735 -941
9989 -2742 -948
9977 -2748 -954
9968 -2756 -961
9930 -2755 -965
9918 -2761 -971
9902 -2766 -977
9862 -2764 -980
9859 -2773 -987
9838 -2776 -992
9832 -2783 -999
9807 -2784 -1003
9796 -2789 -1008.9999
9778 -2793 -1014.0001
9749 -2793 -1018
9745 -2800 -1025
9711 -2798 -1029
9705 -2804 -1035
9682 -2805 -1039
9670 -2809 -1045
9644 -2809 -1049
9628 -2812 -1054
9617 -2815 -1059
9602 -2818 -1064
9572 -2816 -1067
9540 -2814 -1070
9538 -2820 -1077
9520 -2821 -1081
9502 -2822 -1086
9497 -2827 -1092
9492 -2831 -1097
9409 -2812 -1094
9281 -2780 -1085
0 0 0
8273 -2488 -978
8508 -2563 -1011.0001
8327 -2513 -996
8275 -2502 -995
8274 -2507 -1000
8279 -2512 -1006.0001
8272 -2514 -1010
8253 -2513 -1013
8266 -2520 -1019.0001
8268 -2525 -1025
8277 -2531 -1031
8274 -2534 -1036
8292 -2543 -1043
8303 -2550 -1049
8305 -2554 -1054
8349 -2571 -1065
8435 -2601 -1081
8528 -2633 -1098
8583 -2653 -1110
8613 -2665 -1119
8593 -2661 -1121
8505 -2637 -1114
8455 -2624 -1113
8349 -2593 -1103
8297 -2580 -1101
8239 -2564 -1098
8269 -2575 -1106
8267 -2576 -1110
8258 -2575 -1113
8260 -2577 -1118
8264 -2580 -1123
8278 -2586 -1129
8285 -2590 -1134
8335 -2607 -1145
8373 -2620 -1154
8394 -2627 -1161
8440 -2643 -1172
8449 -2646 -1177
8460 -2651 -1183
8479 -2657 -1189
8465 -2653 -1191
8479 -2658 -1197
8468 -2655 -1199
8466 -2654 -1203
8436 -2645 -1202
8469 -2655 -1210
8482 -2659 -1216
8478 -2658 -1219
8457 -2651 -1220
8446 -2647 -1221
8439 -2644 -1224
8407 -2633 -1222
8339 -2611 -1216
0 0 0
0 0 0
0 0 0
0 0 0
0 0 0
0 0 0
0 0 0
0 0 0
0 0 0
0 0 0
0 0 0
0 0 0
0 0 0
0 0 0
8267 -2563 -1247
8269 -2561 -1250
8257 -2554 -1250
8261 -2552 -1253
8260 -2550 -1255
8249 -2543 -1256
8274 -2547 -1261
8274 -2544 -1264
8268 -2539 -1265
8274 -2537 -1267
8261 -2530 -1267
8267 -2528 -1270
8288 -2531 -1275
8275 -2523 -1275
8282 -2521 -1277
8272 -2514 -1277
8264 -2508 -1278
8251 -2500 -1277
8212 -2483 -1272
8232 -2485 -1277
8240 -2483 -1279
8272 -2488 -1285
8291 -2489 -1289
8303 -2487 -1292
8323 -2488 -1297
8310 -2480 -1295
8292 -2469 -1293
8280 -2460 -1293
8305 -2462 -1297
8281 -2449 -1294
8323 -2456 -1302
8286 -2439 -1296
8248 -2423 -1291
8209 -2405 -1285
8201 -2397 -1284
8207 -2393 -1286
8214 -2389 -1287
8199 -2378 -1285
8214 -2376 -1287
8205 -2367 -1286
8215 -2363 -1288
8218 -2358 -1288
8235 -2356 -1291
8231 -2348 -1290
8224 -2339 -1288
8233 -2335 -1290
8247 -2331 -1292
8251 -2325 -1292
8268 -2323 -1294
8270 -2316 -1294
8252 -2304 -1290
8268 -2301 -1292
8285 -2298 -1294
8294 -2293 -1295
8339 -2297 -1301
8384 -2301 -1307
8427 -2305 -1313
8371 -2281 -1303
8398 -2280 -1306
8433 -2282 -1310
8420 -2270 -1307
8404 -2257 -1303
8394 -2246 -1300
8385 -2234 -1297
8357 -2218 -1291
8389 -2218 -1295
8413 -2215 -1297
8557 -2244 -1317
8645 -2257 -1329
8670 -2254 -1331
8676 -2246 -1329
8656 -2231 -1325
8442 -2167 -1289
8392 -2144 -1280
8557 -2177 -1303
8719 -2208 -1325
8746 -2204 -1327
8757 -2197 -1326
8759 -2187 -1323
8752 -2175 -1320
8765 -2167 -1319
8768 -2157 -1317
8787 -2151 -1317
8783 -2140 -1313
8794 -2131 -1312
8801 -2122 -1310
8806 -2112 -1307
8815 -2103 -1305
8826 -2095 -1304
8836 -2086 -1302
8836 -2074 -1298
8826 -2061 -1293
8880 -2062 -1298
8897 -2054 -1296
8894 -2042 -1292
8884 -2027 -1287
8888 -2016 -1283
8883 -2003 -1279
8875 -1990 -1273
8876 -1978 -1269
8923 -1976 -1272
8947 -1969 -1271
8956 -1958 -1267
8968 -1949 -1265
8973 -1937 -1261
8988 -1928 -1258
9002 -1918 -1256
8994 -1904 -1250
9021 -1896 -1248
9035 -1887 -1245
9032 -1873 -1240
9055 -1865 -1238
9064 -1853 -1234
9069 -1841 -1229
9092 -1832 -1227
9109 -1822 -1224
9118 -1811 -1219
9142 -1802 -1217
9133 -1787 -1210
9125 -1772 -1203
9167 -1766 -1203
9168 -1753 -1197
9191 -1743 -1194
9215 -1734 -1191
9237 -1724 -1187
9249 -1712 -1183
9248 -1698 -1176
9264 -1687 -1172
9294 -1678 -1169
9299 -1664 -1163
9332 -1656 -1160
9339 -1643 -1154
9343 -1629 -1148
9380 -1621 -1145
9405 -1610 -1141
9422 -1598 -1136
9433 -1585 -1129
9450 -1573 -1124
9471 -1562 -1119
9485 -1549 -1113
9505 -1537 -1108
9504 -1522 -1100
9517 -1509 -1093
9539 -1497 -1088
9576 -1487 -1084
9599 -1476 -1079
9647 -1467 -1076
9642 -1451 -1067
9663 -1439 -1061
9688 -1427 -1055
9704 -1413 -1048
9742 -1403 -1043
9750 -1389 -1035
9770 -1376 -1029
9796 -1363 -1021.9999
9831 -1352 -1016.9999
9855 -1340 -1010
9868 -1325 -1002
9884 -1311 -994
9920 -1300 -988
9936 -1286 -980
9943 -1270 -971
9979 -1258 -964
9993 -1243 -956
10018 -1230 -948
10053 -1217 -941
10106 -1207 -936
10125 -1192 -927
10162 -1180 -920
10182 -1166 -911
10214 -1153 -903
10237 -1138 -894
6834 -748 -590
6831 -737 -582
6824 -724 -574
6828 -714 -567
6825 -702 -559
6834 -692 -552
6819 -679 -543
6817 -667 -536
6818 -656 -528
6822 -645 -521
6833 -635 -514
6863 -626 -508.00003
6878 -616 -501
6899 -607 -495
6913 -596 -487
6904 -584 -479
6959 -577 -474
6970 -566 -466
10411 -829 -684
10430 -813 -673
10421 -795 -659
10438 -779 -648
10445 -763 -635
10436 -745 -622
10457 -729 -610
10457 -712 -597
10465 -695 -584
10482 -679 -571
10473 -661 -558
10485 -645 -545
10495 -628 -532
10494 -611 -518
10517 -595 -505
10508 -577 -491
10510 -561 -478
10499 -543 -463
10494 -525 -449
10492 -509 -435
10485 -491 -421
10480 -474 -406
10474 -457 -392
10472 -440 -377
10465 -423 -363
10466 -406 -349
10457 -389 -334
10454 -372 -319
10448 -356 -304
10443 -339 -290
10431 -322 -274
10439 -305 -260
10424 -289 -245
10417 -272 -230
10420 -256 -215
10411 -239 -200
10395 -222 -184
10391 -206 -169
10380 -189 -153
10382 -173 -138
10381 -157 -123
10402 -141 -108
10446 -125 -92
10663 -112 -79
10829 -96 -64
10996 -81 -48
11079 -65 -32
11120 -48 -16
11182 -32 0
11258 -15 17
11313 1 35
11373 19 53
11442 36 70
11500 53 89
11597 71 107
11615 88 125
11683 106 144
11772 125 164
11783 142 182
11788 159 201
11776 176 219
11762 193 237
11765 210 256
11768 227 274
11775 244 293
11773 261 312
11776 277 331
11845 296 351
11942 315 373
14652 407 482
14696 429 507.00003
14773 452 534
14886 476 561
14987 500 590
15041 522 616
15186 548 646
15295 573 676
15370 597 705
15462 621 734
15600 647 766
15665 671 795
15772 697 826
15883 722 858
15968 747 889
16115 775 923
16205 800 955
16312 827 988
16396 852 1021
16548 881 1058
16670 909 1093
16808 938 1130
16917 965 1165
17041 994 1203
17208 1025 1243
17356 1055 1282
17350 1076 1311
17316 1095 1337
17316 1117 1367
17329 1139 1397
17312 1159 1425
17304 1179 1453
17302 1199 1482
17297 1219 1511
17287 1239 1539
17273 1258 1567
17274 1278 1596
17247 1296 1622
17297 1320 1656
17309 1340 1687
17326 1361 1717
17284 1378 1743
17300 1398 1773
17307 1418 1803
17299 1436 1832
17290 1454 1860
17229 1468 1882
17197 1484 1908
17217 1504 1939
17210 1522 1968
17238 1543 2000
22017 1994 2592
22270 2040 2660
22288 2065 2699
22297 2088 2738
22262 2108 2771
22271 2131 2809
22272 2153 2847
22266 2175 2884
22271 2197 2921
22296 2222 2962
22288 2242 2998
22320 2267 3039
22311 2287 3076
22304 2308 3112
22307 2329 3150
22294 2348 3185
22272 2366 3219
22279 2387 3256
22397 2420 3310
24098 2625 3602
24327 2671 3675
24402 2701 3727
24388 2721 3765
24385 2741 3804
24371 2761 3842
24367 2781 3882
24376 2802 3922
24403 2826 3967
28083 3275 4611
28072 3296 4654
28074 3319 4700
28073 3341 4745
28053 3361 4786
28051 3382 4831
28058 3405 4878
28057 3426 4923
28039 3445 4964
28078 3471 5015
28161 3502 5075
28269 3537 5140
28333 3565 5197
28338 3586 5242
28338 3606 5287
28366 3630 5337
28361 3648 5380
28387 3671 5429
28387 3690 5473
30768 4020 5980
0 0 0
28793 3800 5685
28428 3770 5656
28160 3752 5645
28103 3762 5677
28114 3781 5721
28128 3799 5766
28143 3818 5812
28204 3843 5867
28397 3886 5949
28366 3898 5984
28413 3920 6037
45530 6308 9740
45520 6331 9805
45517 6355 9871
28354 3974 6190
28342 3987 6228
28350 4002.9998 6271
28324 4014 6306
28279 4021.9998 6335
28201 4024.0002 6359
28089 4021.9998 6373
28029 4026 6398
28021 4038 6436
27984 4046 6466
27995 4060 6507
27970 4067.9998 6540
27965 4080 6577
27964 4092 6614
27950 4101 6649
27937 4110 6683
27918 4119 6716
27910 4129 6751
27907 4139 6787
27903 4149 6822
27913 4160 6861
27962 4177 6909
47901 7174 11897
47860 7184 11948
47839 7196 12003
47834 7212 12061
47810 7223 12115
47794 7235 12170
47769 7246 12221
47753 7256 12275
47738 7268 12328
47715 7278 12380
47731 7294 12441
47686 7300 12486
47685 7311 12542
47660 7319 12591
47638 7327 12639
47637 7338 12693
47606 7344 12739
47599 7352 12791
47585 7359 12840
47577 7367 12890
47550 7372 12934
47544 7380 12984
47517 7384 13028
47505 7390 13075
47482 7395 13119
47483 7401 13168
47466 7405 13212
47452 7409 13257
47440 7414 13301
47418 7416 13342
47406 7419 13386
47387 7422 13426
47388 7426 13472
47366 7427 13511
47356 7429 13553
47350 7431 13596
47336 7431 13635
47316 7431 13672
47313 7433 13714
47279 7429 13746
47279 7432 13786
47267 7431 13824
47259 7430 13862
47235 7427 13895
47245 7429 13938
47250 7430 13978
47227 7426 14010
47223 7424 14046
47209 7421 14079
47190 7417 14109
47191 7415 14146
47180 7411 14178
47183 7408 14214
47146 7400 14236
47143 7396 14269
47130 7391 14298
47142 7389 14334
47104 7379 14354
47121 7377 14390
47091 7367 14412
47087 7360 14441
47077 7353 14468
47091 7349 14502
47072 7341 14523
47082 7336 14554
47063 7325 14576
47049 7316 14598
47040 7306 14622
47051 7300 14650
47045 7290 14673
47063 7284 14703
47042 7272 14720
47037 7261 14742
47039 7252 14765
47035 7242 14785
47025 7232 14802
47021 7219 14822
47020 7209 14841
46999 7193 14854
47010 7184 14876
46992 7169 14888
47003 7159 14910
46945 7137 14908
46882 7114 14904
46853 7098 14910
46836 7082 14920
46832 7067 14933
46825 7052 14944
46848 7041 14964
46859 7028 14980
46840 7010 14986
46862 6998 15004
46872 6985 15018
46852 6966 15021
46861 6952 15033
46830 6931 15032
46855 6918 15048
46810 6894 15041
46832 6880 15055
46833 6862 15061
46836 6846 15067
46827 6827 15069
46833 6809 15075
46810 6787 15071
46827 6771 15079
46819 6751 15079
46842 6734 15088
46860 6717 15095
46841 6694 15089
46840 6673 15089
46835 6653 15086
46816 6630 15078
46844 6612 15085
46843 6591 15082
46858 6571 15084
46840 6546 15074
46846 6526 15070
46855 6506 15068
46860 6483 15064
46874 6463 15061
46884 6441 15058
46869 6415 15045
46882 6393 15040
46891 6372 15034
46879 6346 15020
46879 6321 15010
46886 6297 15001
46901 6274 14994
46896 6250 14980
46910 6226 14971
46909 6202 14957
46919 6176 14947
46915 6149 14931
46926 6126 14918
46942 6101 14907
46953 6076 14895
46943 6049 14873
46953 6023 14858
46960 5996 14843
46964 5969 14825
46967 5942 14806
46976 5916 14787
46987 5890 14769
46998 5862 14751
47011 5836 14733
47020 5808 14712
47027 5780 14691
47035 5752 14669
47018 5722 14639
47057 5695 14625
47068 5667 14602
47063 5636 14574
47077 5609 14550
47105 5582 14530
47102 5551 14502
47107 5522 14473
47119 5491 14447
47122 5462 14417
47121 5432 14385
47149 5402 14362
47168 5374 14335
47177 5343 14305
47179 5311 14272
47186 5281 14241
47194 5249 14209
47205 5219 14175
47229 5190 14147
47241 5158 14114
47260 5127 14083
47248 5094 14040
47284 5065 14012
47274 5031 13970
47303 5000 13939
47318 4968 13903
47330 4936 13865
47343 4905 13828
47353 4872 13788
47372 4840 13751
47404 4809 13717
47377 4774 13666
47418 4744 13633
47429 4710 13591
47441 4677 13548
47447 4643 13504
47476 4611 13465
47498 4578 13424
47497 4543 13375
47516 4510 13332
47538 4477 13289
47552 4444 13241
47574 4412 13197
47580 4378 13150
47611 4345 13107
47608 4309 13054
47625 4275 13005
47629 4240 12953
47653 4207 12904
47676 4175 12857
47701 4141 12808
47733 4108 12761
47729 4072 12704
27920 2361 7398
27934 2341 7368
27926 2320 7332
27946 2300 7304
27947 2279 7269
27929 2257 7230
27977 2240 7208
28004 2221 7179
27970 2197 7135
47921 3728 12162
47972 3696 12112
47957 3659 12046
47998 3625 11993
48022 3591 11933
48052 3557 11876
48057 3521 11812
48074 3487 11752
48106 3452 11693
48114 3418 11629
48138 3383 11567
48194 3351 11513
48236 3317 11455
48225 3280 11383
48213 3244 11312
46111 3068 10752
46239 3042 10714
46231 3006 10644
46261 2974 10583
46268 2940 10516
46278 2907 10450
46289 2874 10383
36624 2246 8159.0005
36638 2221 8107.0005
36642 2194 8052
36646 2167 7996
0 0 0
28538 1646 6138
28528 1624 6091
28518 1603 6043
28570 1585 6010
28587 1566 5967
28585 1545 5921
28564 1524 5871
28607 1505 5833
28626 1486 5790
28642 1466 5746
0 0 0
23286 1159 4595
23394 1148 4576
23334 1128 4525
23304 1111 4481
23356 1097 4451
23410 1083 4421
23396 1066 4379
23389 1050 4337
23412 1035 4301
23468 1021 4270
23368 1001.0001 4211
23429 988 4181
23461 973 4145
23464 958 4104
23499 944 4067.9998
28861 1140 4946
28862 1121 4894
28873 1103 4846
28894 1085 4796
28912 1067 4748
28891 1048 4691
28754 1024 4618
0 0 0
0 0 0
0 0 0
0 0 0
0 0 0
26125 832 3904
25950 811 3829
25791 790 3757
25665 771 3691
19941 587 2830
19874 573 2783
19860 561 2742
19848 549 2703
19866 538 2667
19870 527 2630
19820 515 2585
19412 493 2494
18125 450 2294
18146 441 2262
18129 430 2224
18131 421 2189
18075 410 2147
18088 400 2113
18077 390 2076
18082 381 2040.9999
18086 372 2005.0001
18075 362 1967
18082 353 1932
18044 343 1893
18057 335 1858
18089 327 1825
18075 317 1787
18080 309 1751
18083 300 1715
18084 292 1679
18081 284 1642
18071 275 1604
18060 267 1566
18045 258 1528
17883 248 1478
17649 237 1422
17534 228 1377
17366 219 1328
17173 209 1278
17062 201 1234
16896 192 1187
16698 183 1139
16589 176 1097
16423 168 1052
16209 159 1005
16106.001 152 964
15974 145 924
15843 138 883
15697 132 842
15593 125 804
15306 118 757
15096 111 715
14899 105 674
14807 100 639
14808 95 608
14827 91 577
14796 86 545
14653 81 509
11915 62 388
11859 59 361
11807 55 335
11778 52 309
11784 49 284
11771 46 259
11780 43 234
11784 40 209
11784 37 184
11685 34 157
11594 32 131
11490 29 106
11430 26 81
11348 24 56
11276 22 31
11146 19 7
11075 17 -16
11005 15 -39
10778 13 -61
10498 11 -82
10382 9 -103
10380 8 -125
10374 6 -148
10374 5 -170
10382 4 -192
10399 3 -214
10410 2 -237
10400 1 -259
10411 0 -281
10424 0 -304
10424 -1 -326
10448 -2 -349
10437 -3 -371
10443 -3 -394
10453 -4 -416
10467 -4 -439
10470 -5 -461
10482 -5 -484
10492 -5 -505.99997
10492 -6 -528
10499 -6 -551
10496 -6 -573
10504 -6 -596
10510 -6 -618
10591 -5 -645
10526 -5 -664
10537 -5 -687
10552 -5 -710
6928 -3 -481
6874 -2 -491
6850 -2 -504
6819 -1 -516
6803 -1 -529
6781 0 -541
6797 0 -557
6801 0 -572
6799 1 -586
6795 1 -599
10187 3 -920
10151 4 -938
10099 5 -953
10038 7 -969
9995 8 -985
9941 9 -1000
9900 11 -1016.0001
9839 12 -1030
9795 14 -1046
9757 15 -1061
9709 17 -1076
9659 19 -1091
9616 20 -1105
9559 22 -1118
9517 24 -1132
9457 26 -1144
9409 27 -1157
9368 29 -1171
9341 31 -1186
9296 33 -1199
9263 35 -1214
9211 37 -1225
9168 39 -1237
9131 41 -1250
9093 44 -1263
9051 46 -1275
8999 48 -1285
8971 50 -1299
8941 53 -1312
8894 55 -1322
8852 57 -1333
8817 59 -1345
8777 62 -1355
8752 64 -1368
8712 67 -1379
8665 69 -1387
8345 69 -1352
7232 62 -1185
7559 68 -1253
7227 67 -1211
7163 69 -1214
7137 71 -1223
7134 74 -1236
7130 76 -1248
7096 78 -1256
7001 80 -1252
6868 81 -1240
6830 83 -1246
6797 85 -1252
6803 88 -1266
6800 90 -1277
6805 93 -1290
6813 96 -1304
6814 99 -1316
6811 101 -1328
6788 104 -1335
6755 106 -1340
6759 109 -1353
6767 112 -1366
6767 115 -1377
6768 118 -1389
6774 121 -1402
6772 124 -1413
6787 127.00001 -1428
6783 130 -1438
6788 133 -1451
6794 136 -1463
6788 139 -1473
6803 142 -1488
6803 145 -1499
6792 148 -1508
6805 152 -1522
6804 155 -1532
6814 159 -1545
6825 162 -1559
6820 165 -1568
6818 168 -1579
6837 172 -1594
6832 176 -1603
6827 179 -1612
6840 182 -1626
6843 186 -1637
6842 189 -1647
6840 193 -1657
6855 196 -1671
6855 200 -1681
6851 203 -1690
6856 207 -1701
6856 210 -1711
6864 214 -1723
6869 218 -1734
6865 221 -1743
6881 225 -1757
6874 229 -1764
6886 233 -1777
6880 236 -1785
6873 240 -1792
6885 244 -1805
6892 248 -1816
6893 250.99998 -1825
6898 255 -1835
6901 259 -1845
6910 263 -1857
6905 266 -1864
6909 270 -1874
6903 274 -1881
6903 278 -1890
6877 280 -1891
6841 282 -1889
6802 284 -1887
6772 287 -1887
6767 291 -1894
6755 294 -1898
6770 298 -1910
6759 301 -1915
6768 305 -1925
6769 309 -1933
6770 313 -1941
6768 316 -1948
6773 320 -1957
6775 324 -1965
6730 326 -1959
6705 328 -1959
6676 331 -1957
6642 332 -1954
6614 335 -1953
6613 338 -1959
6575 340 -1954
6543 342 -1951
6494 343 -1943
6497 347 -1950
6468 349 -1947
6433 350 -1943
6408 353 -1941
6401 356 -1945
6374 358 -1942
6356 360 -1943
6337 363 -1942
6326 365 -1944
6316 368 -1946
6318 372 -1952
6310 375 -1955
6308 378 -1959
6296 381 -1961
6302 384 -1967
6297 387 -1970
6297 391 -1975
6284 393 -1976
6280 396 -1979
6283 400 -1984
6269 402 -1984
6273 406 -1990
6262 409 -1991
6260 412 -1994
6255 415 -1997
6243 417 -1996
6246 421 -2000.9999
6255 425 -2007.9999
6242 427 -2007
6231 430 -2007
6237 433 -2013
6227 435 -2013
6225 439 -2015.0001
6220 441 -2017
6219 445 -2020
6220 448 -2023
6216 451 -2025.0001
6200 453 -2023
6209 456 -2028.0001
6204 459 -2029
6196 462 -2029
6195 464 -2032.0001
6198 468 -2035.0001
6182 470 -2032.0001
6188 473 -2036
6182 476 -2036
6182 479 -2039
6172 481 -2037
6170 483 -2038.0001
6173 487 -2040.9999
6177 490 -2043.9999
6172 492 -2043.9999
6167 495 -2043.9999
6167 498 -2045.0001
6165 500 -2046
6153 501.99997 -2043
6161 505.99997 -2046.9999
6157 508.00003 -2046.9999
6151 510 -2046
6141 512 -2043.9999
6148 515 -2046.9999
6133 517 -2042
6142 520 -2046
6144 523 -2046.9999
6136 525 -2045.0001
6132 527 -2043.9999
6127 529 -2043
6130 532 -2043.9999
6122 534 -2042
6133 538 -2045.0001
6121 539 -2040.9999
6121 541 -2040.9999
6120 544 -2040.9999
6117 546 -2039
6119 549 -2040
6111 550 -2036
6109 552 -2035.0001
6112 555 -2036
6106 557 -2033
6104 559 -2030.9999
6107 561 -2030.9999
6112 564 -2032.0001
6107 566 -2029
6105 568 -2027
6099 569 -2023.9999
6093 571 -2020.9999
6096 573 -2020
6095 575 -2019
6095 577 -2017
6087 578 -2013
6084 580 -2010
6091 583 -2010
6078 584 -2004
6086 586 -2005.0001
6092 589 -2005.0001
6091 590 -2002.0001
6080 591 -1996
6089 594 -1997
6082 595 -1992
6086 597 -1991
6081 598 -1987
6085 601 -1986
6081 602 -1982
6080 603 -1978
6079 605 -1975
6073 606 -1970
6080 608 -1969
6071 609 -1963
6081 611 -1963
6078 612 -1959
6083 614 -1957
6074 615 -1951
6078 616 -1948
6082 618 -1946
6075 619 -1940
6067 619 -1933
6080 622 -1934
6072 623 -1927
6074 624 -1924
6069 624 -1918
6070 626 -1914
6069 627 -1910
6075 628 -1907
6073 629 -1902
6083 631 -1901
6077 632 -1894
6079 633 -1890
6080 634 -1886
6074 634 -1879
6075 635 -1874
6072 635 -1868
6080 637 -1866
6087 638 -1863
6086 639 -1857
6089 640 -1853
6080 640 -1845
6085 641 -1841
6084 641 -1835
6083 642 -1829
6095 644 -1827
6090 644 -1820
6084 643 -1812
6090 644 -1808
6096 645 -1804
6087 645 -1795
6092 646 -1790
6102 647 -1787
6094 646 -1779
6109 648 -1777
6104 648 -1769
6102 648 -1762
6102 648 -1755
6116 649 -1753
6115 649 -1746
6108 648 -1737
6119 649 -1733
6118 649 -1726
6119 649 -1719
6117 649 -1712
6128 650 -1707
6120 649 -1698
6127 649 -1693
6131 649 -1687
6132 649 -1680
6135 649 -1673
6125 648 -1662
6144 649 -1660
6144 648 -1653
6148 648 -1646
6143 647 -1637
6150 647 -1631
6156 647 -1624
6149 646 -1615
6158 646 -1609
6171 647 -1604
6166 645 -1595
6177 645 -1589
6183 645 -1583
6191 645 -1576
6207 646 -1572
6225 647 -1568
6247 648 -1565
6265 649 -1560
6279 649 -1555
6288 649 -1548
6313 650 -1546
6323 650 -1539
6346 650 -1536
6362 651 -1530
6373 650 -1524
6394 651 -1519
6410 651 -1514
6430 651 -1509
6451 652 -1504
6457 651 -1496
6481 651 -1492
6501 651 -1486
6513 651 -1479
6539 652 -1475
6560 652 -1470
6576 651 -1463
6590 650 -1456
6587 648 -1445
6598 647 -1438
6613 646 -1430
6631 646 -1424
6640 644 -1415
6662 644 -1410
6683 644 -1404
6708 644 -1398
6725 643 -1391
6732 641 -1381
6726 638 -1369
6725 635 -1358
6723 632 -1346
6731 630 -1337
6726 627 -1325
6718 623 -1312
6712 620 -1300
6714 617 -1289
6703 613 -1276
6712 611 -1266
6733 609 -1258
6764 609 -1253
6776 607 -1243
6807 606 -1238
6836 606 -1231
6860 604 -1224
6888 603 -1217
6908 601 -1209
6937 600 -1202
6964 599 -1195
6988 597 -1187
6992 594 -1175
6972 588 -1160
6964 584 -1146
6951 579 -1132
6940 574 -1118
6949 570 -1107
6943 566 -1094
6932 561 -1080
6932 557 -1067
6928 552 -1054
6927 548 -1042
6927 543 -1030
6923 539 -1016.9999
6919 534 -1003
6909 529 -990
6905 524 -977
6904 519 -964
6898 514 -951
6898 509 -938
6885 504 -924
6881 498 -911
6884 494 -899
6885 489 -887
6881 484 -874
6876 478 -860
6871 473 -847
6860 467 -833
6864 462 -821
6859 457 -808
6860 452 -796
6848 446 -782
6843 440 -769
6846 435 -756
6838 429 -743
6835 423 -730
6850 419 -719
6879 415 -709
9963 593 -1008.9999
10013 587 -995
10043 581 -980
6883 392 -659
6866 385 -645
6850 378 -630
6849 372 -617
6819 365 -602
6797 358 -587
6781 351 -574
6779 345 -561
6785 339 -549
6795 333 -537
6830 329 -527
6845 323 -516
6874 318 -505
6914 313 -495
6950 308 -485
10517 456 -714
10501 446 -694
10502 435 -674
10491 425 -655
10488 415 -635
10482 404 -615
10489 394 -596
10479 383 -576
10477 372 -557
10465 361 -537
10455 350 -518
10462 339 -498
10450 328 -479
10443 317 -459
10435 306 -439
10430 294 -420
10425 283 -401
10407 272 -381
10408 260 -362
10411 249 -343
10404 237 -324
10404 226 -305
10401 215 -286
10390 203 -267
10389 191 -248
10379 179 -229
10370 167 -210
10374 155 -191
10374 144 -172
10368 132 -154
10367 120 -135
10378 108 -117
10429 96 -99
10687 86 -82
10881 75 -64
11039 63 -45
11105 50 -26
11161 37 -6
11241 23 13
11305 10 33
11369 -3 53
11450 -17 73
11488 -31 94
11602 -46 115
11670 -61 137
11757 -76 158
11794 -91 180
11803 -106 200
11796 -121 220
11786 -136 241
11779 -151 261
11768 -166 281
11796 -181 301
11807 -196 322
11820 -212 342
11882 -228 364
11933 -245 386
14478 -316 493
14453 -335 516
14421 -353 539
14402 -371 562
14382 -390 585
14413 -410 611
14398 -429 634
14426 -449 659
14453 -469 684
14530 -491 711
14525 -510 734
14531 -530 758
14550 -550 783
14598 -572 809
14631 -593 834
14593 -612 855
14571 -631 877
14581 -651 901
14606 -673 926
14654 -695 952
14691 -717 977
14725 -739 1003
14730 -760 1026
14771 -783 1052
14808 -806 1078
14870 -830 1105
14944 -855 1134
15021 -881 1162
15214 -914 1200
15492 -953 1246
15585 -980 1277
15635 -1005 1304
15664 -1030 1330
15713 -1055 1357
15745 -1080 1383
15806 -1107 1412
15885 -1135 1442
15961 -1163 1472
16068.001 -1194 1506
18712 -1417 1780
18709 -1444 1807
18735 -1474 1837
18763 -1502 1866
18738 -1527 1889
18747 -1555 1916
18747 -1582 1942
18752 -1610 1969
18767 -1638 1996
18754 -1664 2020.9999
18785 -1694 2050
18797 -1722 2076
18793 -1749 2101
18807 -1778 2128
18803 -1805 2153
18817 -1833 2179
16113.001 -1593 1887
16077 -1613 1904
16094 -1638 1927
16061.001 -1658 1944
16051.001 -1680 1963
15965 -1694 1973
15991 -1721 1997
15923 -1736 2007.9999
15940 -1762 2030
16038 -1796 2063
18862 -2139 2449
18901 -2171 2478
18965 -2206 2509
19152 -2255 2557
19849 -2366 2674
20262 -2445 2754
20306 -2480 2784
20304 -2509 2808
20269 -2535 2827
20264 -2563 2850
20291 -2596 2877
20264 -2622 2897
20245 -2648 2917
20318 -2687 2950
20279 -2711 2967
22749 -3074 3353
22734 -3105 3376
22718 -3135 3398
22658 -3160 3414
22648 -3191 3437
22670 -3226 3465
22759 -3271 3502
22708 -3295 3518
24622 -3608 3840
24718 -3657 3880
24730 -3694 3907
24741 -3730 3934
24758 -3768 3961
24742 -3800 3984
24743 -3835 4008
24745 -3870 4032
24747 -3905 4057.0002
24762 -3942 4083.0002
24762 -3976 4106
24720 -4002.9998 4123
28347 -4630 4754
28415 -4680 4791
28670 -4761 4860
28789 -4821 4907
28852 -4871 4943
28882 -4915 4974
28900 -4958 5002
28894 -4996 5026
28897 -5035 5051
28905 -5075 5077
28898 -5114 5101
28378 -5059 5032
28123 -5051 5009
27853 -5040 4985
27585 -5027 4959
27367 -5024 4940
27114 -5012 4916
27093 -5044 4933
27086 -5078 4952
27072 -5110 4970
27050 -5141 4986
27033 -5172 5003
26971 -5195 5011
26923 -5220 5022
26875 -5245 5032
26837 -5272 5043
26825 -5303 5059
26786 -5329 5070
26762 -5357 5083
26724 -5383 5093
26683 -5407 5102
26668 -5437 5117
26645 -5465 5130
26636 -5495 5144
26586 -5516 5150
26557 -5542 5161
26561 -5575 5178
26543 -5603 5189
26539 -5633 5204
26555 -5668 5222
26556 -5698 5237
26413 -5699 5223
26389 -5724 5232
26561 -5792 5280
26787 -5871 5339
26564 -5853 5308
0 0 0
0 0 0
0 0 0
0 0 0
27447 -6199 5549
27448 -6229 5562
27397 -6247 5563
28130 -6444 5724
28699 -6604 5852
28798 -6657 5884
28894 -6710 5915
28767 -6709 5900
28475 -6671 5851
27859 -6555 5734
28500 -6734 5876
28673 -6803 5922
28797 -6860 5957
27112 -6486 5618
30419 -7307 6313
0 0 0
0 0 0
0 0 0
0 0 0
0 0 0
0 0 0
0 0 0
0 0 0
0 0 0
0 0 0
29145 -7294 6132
29079 -7302 6124
29120 -7337 6139
29171 -7374 6155
0 0 0
0 0 0
0 0 0
0 0 0
0 0 0
0 0 0
0 0 0
0 0 0
0 0 0
0 0 0
29118 -7609 6185
29060 -7615 6174
0 0 0
28902 -7615 6144
28808 -7610 6125
28762 -7616 6116
0 0 0
0 0 0
0 0 0
0 0 0
0 0 0
0 0 0
0 0 0
0 0 0
0 0 0
0 0 0
0 0 0
0 0 0
0 0 0
30507 -8333 6471
30514 -8350 6469
30536 -8372 6471
30549 -8390 6470
30546 -8404 6465
30550 -8419 6462
30549 -8432 6457
30547 -8445 6451
30540 -8456 6445
30518 -8463 6434
30493 -8468 6424
30494 -8480 6418
30476 -8487 6408
30469 -8496 6400
27535 -7688 5778
30454 -8514 6383
30421 -8514 6369
0 0 0
27440 -7698 5730
27337 -7677 5702
27436 -7713 5715
27326 -7690 5684
27257 -7678 5661
30450 -8585 6316
30449 -8592 6306
27296 -7708 5644
27234 -7697 5622
27285 -7717 5623
27116 -7674 5580
27106 -7676 5568
27087 -7676 5554
27105 -7685 5548
27093 -7685 5535
27111 -7694 5529
27128 -7702 5521
27152 -7711 5516
27134 -7709 5501
27161 -7719 5495
27093 -7702 5469
27080 -7700 5455
27115 -7711 5449
27170 -7727 5449
27162 -7726 5434
27126 -7716 5414
27105 -7710 5398
27080 -7702 5380
27138 -7718 5378
30598 -8702 6048
27179 -7728 5358
27235 -7742 5356
27166 -7721 5327
27096 -7698 5299
30677 -8712 5983
30709 -8718 5972
27175 -7711 5270
27169 -7706 5253
27192 -7708 5243
27182 -7701 5225
27225 -7708 5218
27203 -7697 5198
27227 -7699 5186
27203 -7687 5164
27240 -7691 5155
27214 -7677 5133
27266 -7684 5126
27182 -7654 5092
27260 -7669 5090
27345 -7684 5088
27228 -7644 5049
27321 -7661 5048
27382 -7669 5041
27380 -7660 5022
27379 -7650 5003
27380 -7641 4984
27217 -7585 4936
27105 -7543 4897
26962 -7493 4852
26824 -7444 4808
26794 -7424 4784
26772 -7407 4760
26695 -7374 4727
26631 -7344 4696
26599 -7323 4670
26589 -7307 4648
26580 -7291 4627
26596 -7282 4609
26583 -7265 4587
26603 -7256 4570
26606 -7243 4550
26601 -7226 4528
26595 -7210 4506
26550 -7182 4477
26489 -7150 4446
26422 -7116 4413
26155 -7028 4348
25828 -6924 4272
0 0 0
0 0 0
25365 -6751 4132
24934 -6620 4041
24822 -6573 4001.9998
24716 -6528 3964
24602 -6480 3924
24359 -6398 3865
24304 -6366 3835
24159 -6310 3791
24068 -6269 3756
23856 -6195 3702
23771 -6155 3668
23682 -6113 3633
23586 -6069 3597
23408 -6005 3550
23213 -5935 3499
23011 -5864 3448
22884 -5813 3408
22152 -5608 3280
21592 -5447 3177
21532 -5413 3148
21501 -5386 3124
21474 -5360 3100
21459 -5337 3078
21459 -5317 3058
21467 -5299 3039
21467 -5278 3019
19184 -4698 2680
19152 -4671 2657
19124 -4646 2635
19160 -4636 2622
19186 -4623 2607
19190 -4605 2590
19194 -4586 2572
19222 -4573 2557
19252 -4560 2542
19266 -4544 2526
19257 -4521 2506
19240 -4496 2485
19148 -4453 2454
18631 -4312 2370
18121 -4175 2287
17978 -4121 2252
17949 -4093.9998 2230
17903 -4063.0002 2207
17905 -4043.0002 2190
17914 -4024.0002 2173
17880 -3995 2151
17885 -3975 2134
17892 -3955 2117
17902 -3936 2100
17915 -3917 2084
17934 -3899 2068
17943 -3879 2051
17973 -3863 2037
17942 -3834 2015.0001
17969 -3817 2000
17977 -3796 1983
17983 -3774 1966
17994 -3753 1949
18013 -3734 1933
18036 -3715 1917
18027 -3689 1898
18020 -3663 1879
18048 -3645 1864
18066 -3624 1848
18078 -3602 1831
18069 -3575 1811
18080 -3552 1794
18078 -3526 1775
18102 -3506 1759
18118 -3483 1742
18136 -3460 1726
18125 -3432 1706
18133 -3408 1689
18152 -3385 1673
18141 -3357 1654
18187 -3339 1639
18186 -3312 1621
18191 -3286 1603
18112 -3245 1578
17950 -3188 1546
17857 -3145 1520
17764 -3101 1494
17657 -3056 1468
17604 -3019 1445
17497 -2974 1419
17424 -2934 1396
17391 -2902 1376
17331 -2864 1354
17239 -2822 1330
17140 -2778 1305
17056 -2738 1282
17012 -2703 1262
16965 -2668 1241
16890 -2629 1219
16809 -2589 1197
16686 -2543 1171
16606 -2503 1150
16537 -2465 1129
16494 -2431 1110
16476 -2400 1092
16447 -2369 1075
16420 -2338 1057
16292 -2292 1033
16195.999 -2251 1011.0001
16177 -2220 995
16013 -2170 969
15967 -2136 951
15932 -2104 934
15919 -2074 918
15923 -2048 904
15774 -2000.9999 881
15740 -1969 864
15684 -1934 846
15609 -1897 828
15559 -1863 811
15505 -1829 793
15447 -1794 776
15383 -1759 759
15307 -1723 741
15273 -1692 726
15231 -1659 710
15154 -1623 693
15128 -1592 678
15058 -1557 661
15025 -1527 647
14995 -1496 632
14929 -1461 616
14897 -1430 602
14832 -1396 587
14774 -1363 571
14713 -1330 557
14672 -1299 542
14587 -1263 527
11984 -1015 423
11952 -990 412
11914 -964 400
11922 -942 391
11875 -916 379
11852 -891 369
11859 -869 360
11832 -844 349
11832 -822 340
11826 -798 330
11811 -774 320
11819 -751 311
11817 -727 302
11804 -703 292
11812 -680 283
11822 -658 274
11812 -634 265
11811 -611 256
11828 -588 248
11821 -564 239
11828 -541 230
11824 -517 221
11823 -494 213
11819 -469 204
11813 -445 196
11808 -422 187
11794 -397 179
11753 -372 170
11692 -347 161
11649 -321 152
11652 -297 144
11628 -273 136
11604 -249 128
11580 -225 120
11528 -201 112
11544 -177 105
11517 -153 97
11477 -129 90
11439 -105 82
11431 -82 75
11396 -58 68
11375 -35 61
11353 -11 54
11337 11 47
11317 34 40
11296 58 34
11279 81 27
11256 104 21
11252 127.00001 14
11208 150 8
11197 173 2
11177 196 -3
11144 218 -9
11127 241 -15
11118 264 -21
11098 287 -26
11087 310 -32
11064 332 -37
11069 356 -43
11031 377 -48
10984 398 -53
10940 420 -58
10885 440 -63
10850 461 -68
10799 481 -72
10766 503.00003 -77
10737 524 -81
10689 544 -85
10665 565 -90
10621 584 -94
10577 604 -98
10545 624 -102
10486 642 -105
10444 662 -109
10403 680 -112
10392 701 -116
10357 721 -119
10359 743 -123
10348 763 -127.00001
10332 783 -130
10325 804 -133
10296 823 -136
