# .PCD v0.7 - Point Cloud Data file format
VERSION 0.7
FIELDS x y z
SIZE 4 4 4
TYPE F F F
COUNT 1 1 1
WIDTH 3009
HEIGHT 1
VIEWPOINT 0 0 0 1 0 0 0
POINTS 3009
DATA ascii
49003 -11705 12064
49013 -11737 12069
49034 -11772 12076
49039 -11802 12078
49008 -11823 12071
48999 -11848 12069
49004 -11875 12071
49012 -11903 12073
49071 -11945 12086
49072 -11971 12084
49032 -11987 12072
49051 -12016 12073
49019 -12033 12062
49043 -12062 12065
49040 -12084 12059
49029 -12104 12053
49056 -12133 12054
49027 -12147 12041
49047 -12174 12039
0 0 0
0 0 0
0 0 0
0 0 0
0 0 0
0 0 0
0 0 0
0 0 0
0 0 0
0 0 0
46752 -11793 11378
28850 -7286 7013
28869 -7300 7010
28847 -7303 6996
28945 -7335 7012
28890 -7328 6990
28901 -7338 6985
28846 -7331 6962
0 0 0
0 0 0
0 0 0
0 0 0
0 0 0
0 0 0
0 0 0
0 0 0
0 0 0
0 0 0
46219 -11836 10966
46214 -11840 10945
46210 -11843 10924
46211 -11848 10902
46215 -11852 10883
46195 -11850 10856
46193 -11851 10834
46175 -11848 10807
46149 -11843 10778
46103 -11832 10745
45964 -11797 10688
46000 -11806 10672
45819 -11759 10606
45745 -11739 10563
45617 -11705 10509
29633 -7602 6809
29689 -7615 6805
29656 -7604 6781
29705 -7615 6774
29680 -7605 6751
29659 -7597 6728
29703 -7605 6720
29720 -7605 6706
29714 -7599 6685
26732 -6833 5997
26784 -6842 5992
26711 -6819 5958
26743 -6822 5947
26737 -6815 5927
26776 -6819 5918
26734 -6803 5890
26748 -6801 5875
26765 -6798 5860
26741 -6786 5834
26746 -6780 5817
26786 -6783 5806
26773 -6772 5783
26716 -6750 5751
29123 -7349 6246
29104 -7335 6220
29050 -7312 6187
29066 -7306 6167
29143 -7315 6161
29093 -7292 6127
0 0 0
0 0 0
0 0 0
0 0 0
0 0 0
0 0 0
0 0 0
0 0 0
0 0 0
0 0 0
0 0 0
26465 -6495 5305
26425 -6471 5273
26398 -6451 5244
26399 -6437 5221
26388 -6420 5195
26386 -6405 5170
26373 -6387 5143
26382 -6374 5120
26397 -6362 5099
26396 -6346 5074
26403 -6332 5050
26405 -6316 5025
26417 -6302 5002
26443 -6291 4981
26448 -6275 4956
26457 -6260 4932
26471 -6246 4909
26505 -6236 4889
26519 -6220 4865
26544 -6207 4843
26561 -6192 4820
26571 -6175 4795
26572 -6155 4768
26539 -6128 4734
26534 -6106 4706
26526 -6084 4677
26500 -6057 4645
26519 -6041 4621
26515 -6018 4592
26526 -5999 4566
26520 -5976 4537
26513 -5952 4507
24838 -5555 4196
24892 -5546 4179
24901 -5527 4154
24801 -5483 4111
25127 -5532 4137
24873 -5454 4067.9998
24826 -5421 4033
24842 -5402 4008.9998
24838 -5378 3981
24816 -5350 3950
24708 -5303 3905
24301 -5192 3814
24061 -5118 3750
23830 -5046 3688
23567 -4967 3620
23496 -4928 3583
21819 -4554 3303
21964 -4562 3300
21909 -4528 3266
22018 -4528 3257
22480 -4599 3301
22270 -4532 3244
22240 -4502 3214
19624 -3952 2813
19637 -3933 2792
19632 -3910 2770
19648 -3891 2749
19643 -3869 2725
19663 -3850 2706
19680 -3831 2685
19699 -3812 2664
19698 -3789 2642
19696 -3766 2618
19625 -3729 2586
19003 -3588 2481
18464 -3464 2389
18362 -3423 2354
18315 -3392 2327
18295 -3366 2303
18277 -3339 2278
18295 -3320 2259
18296 -3297 2237
18298 -3274 2216
18317 -3254 2196
18332 -3233 2176
18298 -3203 2150
18281 -3176 2126
18281 -3152 2105
18312 -3133 2087
18328 -3112 2067
18347 -3090 2046.9999
18336 -3064 2023
18327 -3037 2000
18355 -3017 1982
18404 -3000 1965
18444 -2981 1947
18439 -2954 1925
18446 -2929 1903
18463 -2907 1884
18390 -2868 1854
18410 -2845 1834
18406 -2818 1812
18437 -2796 1792
18440 -2770 1771
18447 -2743 1749
18465 -2719 1729
18488 -2695 1709
18482 -2667 1687
18317 -2616 1650
18215 -2574 1620
18081 -2528 1586
17993 -2488 1557
17871 -2444 1526
17811 -2409 1500
17724 -2370 1472
17621 -2329 1442
17502 -2286 1412
17390 -2244 1383
16277 -2074 1275
16156 -2033 1246
16122.999 -2004 1225
15984 -1961 1196
15801 -1913 1164
15764 -1883 1143
15743 -1855 1123
15700 -1825 1102
15659 -1794 1081
15634 -1766 1062
15580 -1734 1040
15542 -1704 1020
15490 -1672 999
15459 -1643 979
15437 -1615 960
15426 -1588 942
15397 -1559 923
15331 -1526 901
15309 -1498 883
15319 -1473 866
15293 -1444 848
15258 -1414 829
15232 -1385 811
15201 -1356 792
15173 -1327 774
15098 -1294 753
15073 -1265 735
15069 -1238 719
15043 -1209 701
15008 -1180 683
14964 -1150 665
14924 -1120 647
14929 -1093 631
14903 -1064 614
14870 -1035 597
14826 -1006.0001 580
14788 -976 563
14762 -947 546
14690 -916 528
14564 -881 508.00003
11942 -701 405
11924 -678 392
11901 -654 378
11814 -627 363
11844 -607 352
11831 -585 340
11808 -561 328
11809 -539 316
11806 -516 304
11812 -495 293
11810 -472 281
11810 -450 269
11815 -428 258
11810 -405 246
11812 -383 235
11809 -360 224
11813 -337 212
11808 -315 201
11808 -292 190
11789 -268 179
11756 -245 167
11666 -221 155
11623 -197 144
11623 -175 133
11599 -152 123
11521 -128 111
11513 -106 101
11462 -83 91
11449 -61 81
11406 -38 70
11377 -16 61
11344 5 51
11305 27 41
11280 50 31
11252 72 21
11221 94 12
11191 115 3
11160 137 -5
11131 159 -14
11110 181 -23
11077 202 -32
11041 224 -41
10980 244 -49
10932 265 -58
10818 284 -65
10788 305 -74
10658 322 -81
10584 341 -88
10505 360 -95
10415 378 -102
10382 397 -110
10369 418 -117
10365 438 -125
10353 458 -132
10350 479 -139
10340 499 -146
10343 520 -153
10342 541 -160
10334 561 -167
10342 583 -174
10340 604 -181
10353 625 -188
10346 646 -195
10344 667 -202
10343 688 -208
10351 709 -215
10344 729 -221
10340 750 -227
10341 771 -234
10343 792 -240
10346 813 -246
10369 835 -252.99998
10375 857 -259
10402 880 -265
10409 901 -271
10430 924 -278
10430 945 -284
10461 969 -290
10475 991 -296
10487 1013 -302
10516 1037 -308
10524 1059 -314
10540 1081 -320
10555 1104 -325
10563 1126 -331
10578 1149 -336
10611 1174 -342
10629 1196 -348
10637 1218 -353
10643 1240 -358
10684 1266 -364
10687 1288 -369
10709 1312 -375
10710 1333 -379
10732 1356 -384
10748 1380 -389
10757 1402 -394
10786 1426 -399
10804 1450 -404
10809 1472 -408
10841 1497 -414
10851 1519 -418
10855 1541 -422
10875 1565 -427
10897 1589 -432
10911 1613 -436
10914 1634 -440
10940 1659 -444
10964 1684 -449
10986 1708 -453
10989 1730 -456
10996 1752 -460
11027 1778 -465
11039 1800 -468
11058 1824 -472
11060 1845 -475
11087 1871 -479
11109 1896 -483
11117 1917 -486
11134 1941 -490
11147 1964 -493
11170 1989 -496
11167 2009.0001 -499
11189 2033.9999 -501.99997
11224 2061 -505.99997
11228 2082 -509
11241 2105 -512
11260 2129 -515
11266 2151 -517
11300 2178 -520
11292 2196 -522
11322 2223 -525
11336 2246 -528
11354 2270 -530
11360 2291 -532
11376 2314 -535
11398 2339 -537
11420 2363 -540
11432 2386 -542
11447 2409 -544
11458 2431 -545
11467 2453 -547
11485 2477 -549
11490 2498 -550
11498 2519 -552
11494 2537 -552
11511 2561 -554
11505 2579 -554
11512 2600 -556
11496 2615 -555
11506 2637 -556
11504 2655 -557
11489 2671 -556
11479 2687 -556
11478 2706 -557
11452 2718 -555
11487 2745 -557
11483 2762 -557
11477 2779 -557
11479 2798 -557
11489 2818 -557
11452 2827 -555
11494 2856 -557
11482 2871 -556
11481 2888 -556
11478 2905 -555
11478 2923 -555
11468 2937 -554
11461 2952 -553
11449 2966 -552
11508 2999 -554
11495 3012 -553
11513 3033 -553
11501 3047 -551
11487 3060 -549
11500 3080 -549
11490 3094 -547
11503 3114 -547
11502 3130 -546
11512 3149 -545
11532 3170 -545
11531 3186 -543
11505 3194 -541
11500 3208 -539
11521 3229 -539
11543 3251 -538
11543 3266 -537
11547 3282 -535
11539 3295 -533
11557 3315 -532
11569 3333 -531
11568 3348 -529
11578 3365 -527
11572 3378 -525
11577 3393 -524
11577 3407 -522
11598 3428 -521
11587 3438 -518
11578 3449 -515
11595 3468 -514
11632 3492 -513
11652 3511 -510.99997
11622 3516 -508.00003
11636 3533 -505.99997
11652 3551 -504
11683 3573 -503.00003
11685 3586 -501
11672 3595 -497
11671 3607 -495
11677 3621 -492
11699 3640 -490
11707 3655 -488
11708 3667 -485
11712 3680 -482
11730 3697 -480
11728 3707 -477
11736 3721 -475
11763 3741 -473
11783 3758 -470
11784 3770 -467
11805 3787 -465
11811 3799 -462
11824 3814 -459
11821 3823 -456
11835 3838 -453
11847 3852 -450
11859 3866 -447
11845 3871 -443
11879 3891 -441
11884 3902 -438
11889 3913 -434
11922 3933 -432
11929 3944 -429
11937 3955 -425
11952 3969 -422
11964 3982 -419
11957 3987 -415
11957 3995 -411
11981 4011.0002 -408
11981 4019 -404
12007 4034.9998 -401
12001 4041 -397
12005 4048.9998 -393
12015 4060 -389
12021 4068.9998 -385
12027 4078 -382
12038 4087.9998 -378
12049 4098 -374
12057 4107 -370
12057 4113 -366
12072 4125 -362
12078 4132 -359
12083 4140 -354
12089 4147 -350
12104 4158 -347
12117 4167 -343
12131 4177 -338
12134 4183 -334
12143 4191 -330
12174 4206 -326
12176 4211 -322
12176 4215 -318
12202 4228 -314
12206 4233 -309
12218 4241 -305
12224 4246 -301
12240 4255 -297
12259 4265 -292
12276 4273 -288
12274 4275 -284
12301 4287 -280
12308 4292 -275
12317 4298 -270
12327 4303 -266
12345 4311 -262
12350 4314 -257
12367 4322 -252.99998
12375 4326 -248
12400 4336 -244
12409 4340 -239
12421 4345 -234
12437 4351 -230
12451 4356 -225
12459 4359 -221
12476 4365 -216
12496 4372 -211
12505 4374 -207
12529 4383 -202
12539 4385 -197
12542 4385 -192
12555 4389 -187
12537 4381 -182
12528 4377 -177
12546 4381 -172
12545 4379 -167
12558 4382 -162
12567 4383 -158
12557 4376 -152
12533 4366 -147
12531 4362 -142
12508 4351 -136
12525 4354 -132
12513 4347 -127.00001
12528 4348 -122
12518 4341 -116
12535 4343 -112
12522 4335 -107
12518 4329 -101
12505 4320 -96
12519 4321 -92
12488 4305 -86
12501 4305 -81
12482 4293 -76
12483 4288 -71
12479 4281 -66
12462 4270 -61
12470 4267 -56
12472 4261 -51
12444 4246 -46
12434 4236 -41
12427 4227 -36
12427 4221 -31
12417 4210 -26
12418 4204 -21
12410 4194 -16
12400 4183 -11
12394 4173 -6
12394 4166 -1
12380 4153 3
12369 4141 8
12354 4128 12
12354 4120 17
12331 4103 22
12331 4094.9998 26
12313 4080 31
12309 4070.0002 36
12303 4059 41
12285 4043.0002 45
12274 4030.0002 50
12267 4018.0002 55
12277 4012 59
12258 3996 64
12236 3978 68
12227 3965 73
12223 3953 77
12211 3939 82
12199 3924 86
12183 3908 91
12190 3900 95
12166 3881 99
12148 3864 104
12147 3852 108
12135 3836 113
12133 3824 117
12116 3807 121
12093 3788 125
12105 3779 129
12080 3759 133
12068 3743 138
12064 3729 142
12049 3712 146
12040 3696 150
12019 3676 153
12006 3659 157
12006 3646 161
11988 3627 165
11977 3610 169
11966 3594 172
11954 3576 176
11931 3555 180
11927 3540 183
11918 3523 187
11910 3507 191
11885 3485 194
11880 3469 197
11868 3451 201
11844 3429 204
11843 3414 208
11826 3394 211
11820 3376 214
11797 3355 217
11782 3335 220
11757 3313 223
11752 3296 227
11755 3281 230
11718 3254 232
11715 3238 235
11715 3222 239
11715 3205 241
11709 3187 244
11692 3166 247
11687 3148 250
11680 3130 252.99998
11683 3114 256
11668 3093 258
11753 3098 263
11771 3086 266
11862 3092 271
11943 3095 276
12016 3096 280
12013 3078 282
12070 3074 286
12098 3063 290
12204 3070 295
12229 3058 298
12289 3053 302
12329 3044 305
12339 3027 308
12357 3012 311
12355 2991 313
12362 2973 315
12371 2956 318
12384 2939 320
12388 2919 322
12386 2898 324
12407 2883 327
12396 2860 328
12409 2843 330
12420 2824 332
12405 2800 334
12434 2786 336
12438 2766 338
12446 2747 339
12446 2725 341
12464 2707 343
12472 2688 344
12451 2661 345
12451 2640 346
12450 2617 347
12466 2599 349
12478 2579 350
12476 2557 351
12481 2536 352
12489 2515 353
12477 2490 354
12473 2467 354
12477 2445 355
12486 2424 356
12484 2400 356
12485 2378 356
12484 2355 356
12472 2330 357
12474 2307 357
12491 2287 357
12499 2265 357
12517 2245 358
12507 2220 358
12507 2196 358
12523 2175 358
12499 2147 357
12495 2123 356
12486 2098 355
12489 2074 355
12479 2049 354
12463 2022.0001 353
12458 1998 352
12450 1972 351
12448 1948 350
12433 1921 348
12421 1895 347
12413 1870 346
12406 1845 344
12402 1820 343
12376 1792 341
12333 1761 338
12340 1737 336
12332 1712 335
12339 1689 333
12347 1666 331
12345 1641 330
12331 1614 327
12349 1592 326
12347 1567 323
12330 1540 321
12340 1517 319
12333 1491 316
12327 1465 314
12306 1438 311
12285 1411 307
12284 1386 305
12261 1358 301
12257 1333 298
12233 1306 295
12228 1280 292
12196 1252 288
12195 1227 285
12173 1200 281
12158 1174 277
12157 1149 274
12143 1122 270
12143 1097 267
12102 1068 262
12079 1042 258
12078 1016.9999 254.00002
12059 991 250
12033 964 245
12034 939 241
12022 914 237
11997 887 232
11996 862 228
11942 833 223
11942 809 218
11927 783 213
11925 759 209
11905 733 204
11896 707 199
11884 682 194
11853 655 188
11836 630 183
11833 605 178
11818 580 173
11798 555 167
11769 529 162
11743 503.00003 156
11723 478 150
11718 454 145
11671 427 139
11645 402 133
11625 377 127.00001
11612 353 121
11580 328 115
11568 304 109
11564 280 103
11540 255 96
11499 230 90
11445 206 83
11443 182 77
11412 158 71
11401 135 64
11365 110 58
11347 86 51
11335 63 44
11307 39 38
11288 16 31
11270 -6 24
11238 -29 17
11207 -52 10
11178 -75 3
11170 -98 -3
11134 -120 -10
11117 -143 -17
11094 -165 -24
10999 -186 -31
10956 -208 -38
10907 -229 -45
10835 -249 -52
10759 -269 -59
10682 -289 -65
10567 -307 -72
10473 -326 -79
10433 -345 -86
10412 -366 -93
10402 -386 -100
10409 -407 -108
10405 -428 -115
10407 -449 -123
10411 -470 -131
10406 -490 -138
10406 -510.99997 -146
10409 -531 -154
10424 -553 -162
10414 -573 -170
10409 -593 -178
10393 -613 -186
10392 -634 -194
10376 -652 -202
10362 -671 -209
10363 -692 -218
10340 -710 -226
10330 -729 -234
10339 -750 -242
10313 -768 -250
10305 -787 -258
10310 -807 -267
10297 -826 -275
10286 -845 -284
10273 -864 -292
10267 -883 -301
10261 -901 -309
10247 -919 -318
10245 -938 -326
10234 -957 -335
10219 -974 -343
10230 -994 -353
10221 -1011.9999 -362
10237 -1033 -371
10235 -1051 -380
10241 -1071 -390
10250 -1091 -399
10240 -1108 -408
10248 -1127 -417
10258 -1147 -427
10258 -1165 -436
10271 -1185 -446
10283 -1205 -457
10279 -1223 -466
10285 -1242 -476
10284 -1260 -485
10296 -1280 -495
10293 -1297 -505
10290 -1315 -514
10300 -1334 -525
10308 -1353 -535
10313 -1372 -545
10316 -1390 -555
10315 -1408 -565
10318 -1425 -575
10320 -1443 -585
10322 -1461 -595
10323 -1478 -605
10336 -1498 -616
10341 -1515 -626
10344 -1533 -637
10349 -1551 -647
7004 -1061 -445
6999 -1072 -451
6982 -1080 -457
6978 -1091 -464
6938 -1096 -468
6931 -1106 -474
6901 -1112 -479
6875 -1119 -484
6888 -1132 -492
6860 -1138 -497
6846 -1146 -503.00003
6850 -1158 -510
6844 -1167 -516
6859 -1180 -524
6849 -1189 -530
6863 -1202 -539
6863 -1212 -546
6849 -1220 -551
6845 -1229 -558
6867 -1244 -567
6854 -1251 -573
10274 -1891 -869
10253 -1902 -877
10235 -1914 -886
10205 -1922 -894
10165 -1929 -901
10115 -1934 -907
10105 -1946 -916
10068 -1953 -923
10058 -1965 -932
10030 -1974 -940
10022 -1986 -949
9989 -1993 -956
9957 -2000 -963
9927 -2007 -970
9900 -2015.0001 -978
9878 -2023 -986
9860 -2033 -994
9830 -2039 -1001.0001
9815 -2049 -1008.9999
9783 -2055 -1016.0001
9758 -2062 -1023
9733 -2069 -1030
9693 -2072 -1036
9695 -2085 -1046
9650 -2087 -1051
9633 -2095 -1059
9614 -2103 -1066
9580 -2107 -1072
9570 -2116 -1081
9551 -2123 -1088
9522 -2128 -1094
9502 -2135 -1102
9470 -2138 -1107
9450 -2144 -1114
9438 -2152 -1122
9413 -2157 -1129
9394 -2163 -1136
9365 -2167 -1142
9340 -2171 -1148
9317 -2176 -1154
9301 -2182 -1161
9273 -2185 -1167
9261 -2192 -1174
9239 -2196 -1181
9213 -2199 -1186
9195 -2205 -1193
9169 -2207 -1198
9159 -2214 -1205
9125 -2214 -1210
9076 -2211 -1212
9061 -2216 -1219
9059 -2224 -1227
9038 -2227 -1233
9044 -2237 -1242
9041 -2245 -1250
9028 -2250 -1256
8994 -2249 -1260
8957 -2248 -1263
8931 -2249 -1268
8913 -2252 -1274
8894 -2255 -1279
8867 -2255 -1283
8853 -2259 -1289
8839 -2262 -1295
8820 -2264 -1300
8804 -2267 -1305
8769 -2265 -1308
8707 -2255 -1307
8628 -2242 -1302
8559 -2230 -1299
8530 -2229 -1303
8525 -2233 -1309
8539 -2243 -1318
8559 -2254 -1329
8566 -2262 -1337
8591 -2274 -1348
8605 -2283 -1358
8590 -2285 -1363
8575 -2286 -1367
8567 -2289 -1373
8553 -2291 -1378
8534 -2291 -1382
8520 -2292 -1387
8507 -2293 -1391
8484 -2292 -1394
8476 -2294 -1399
8467 -2296 -1405
8448 -2295 -1408
8429 -2295 -1412
8420 -2296 -1417
8413 -2298 -1422
8397 -2298 -1425
8392 -2300 -1431
8376 -2300 -1434
8361 -2299 -1438
8348 -2299 -1442
8334 -2299 -1445
8321 -2298 -1449
8311 -2299 -1453
8299 -2299 -1457
8284 -2298 -1460
8262 -2294 -1462
8262 -2297 -1468
8261 -2299 -1473
8240 -2296 -1475
8228 -2295 -1478
8226 -2297 -1483
8205 -2294 -1485
8200 -2294 -1489
8189 -2293 -1492
8175 -2291 -1495
8172 -2292 -1500
8149 -2288 -1500
8154.9995 -2291 -1506
8133.0005 -2286 -1507
8121.9995 -2285 -1510
8118 -2285 -1514
8101 -2281 -1515
8087 -2279 -1518
8073 -2276 -1519
8066 -2275 -1523
8064.9995 -2275 -1527
8062.0005 -2275 -1531
8033 -2268 -1530
8038 -2270 -1535
8036.0005 -2269 -1538
8024 -2266 -1540
8009 -2262 -1541
8003.0005 -2261 -1544
7988 -2257 -1545
7986 -2256 -1548
7967 -2251 -1548
7929 -2239 -1545
7937 -2241 -1550
7941 -2242 -1554
7956 -2246 -1561
7948 -2243 -1563
7952 -2243 -1567
7945 -2241 -1568
7925 -2234 -1568
7941 -2238 -1574
7920 -2231 -1573
7935 -2234 -1579
7924 -2229 -1580
7925 -2228 -1583
7920 -2225 -1585
7909 -2221 -1585
7904 -2218 -1587
7917 -2220 -1592
7920 -2218 -1595
7889 -2208 -1591
7864 -2199 -1589
7888 -2203 -1596
7879 -2199 -1596
7886 -2198 -1600
7863 -2190 -1597
7870 -2189 -1601
7859 -2183 -1600
7855 -2180 -1601
7853 -2176 -1603
7853 -2173 -1605
7850 -2170 -1606
7842 -2164 -1606
7837 -2160 -1606
7840 -2158 -1608
7832 -2152 -1608
7838 -2150 -1610
7835 -2146 -1611
7834 -2142 -1612
7831 -2138 -1613
7819 -2131 -1611
7820 -2128 -1612
7825 -2125 -1614
7830 -2122 -1616
7826 -2117 -1616
7832 -2115 -1618
7816 -2106 -1615
7817 -2102 -1616
7820 -2098 -1617
7816 -2093 -1617
7809 -2086 -1615
7805 -2081 -1615
7812 -2078 -1617
7815 -2074 -1617
7810 -2068 -1616
7823 -2066 -1619
7804 -2056 -1615
7810 -2052 -1616
7819 -2050 -1617
7821 -2045.0001 -1617
7818 -2038.0001 -1616
7819 -2033 -1616
7825 -2029 -1617
7826 -2023.9999 -1616
7824 -2017.9999 -1615
7831 -2014 -1616
7823 -2006 -1613
7833 -2002.0001 -1614
7834 -1997 -1613
7833 -1990 -1612
7852 -1989 -1615
7841 -1980 -1611
7831 -1971 -1608
7833 -1965 -1607
7841 -1960 -1607
7845 -1955 -1607
7861 -1952 -1608
7865 -1946 -1607
7865 -1939 -1605
7863 -1932 -1603
7858 -1924 -1600
7847 -1914 -1596
7879 -1915 -1600
7898 -1912 -1602
7898 -1905 -1600
7890 -1896 -1596
7901 -1891 -1596
7906 -1884 -1594
7900 -1875 -1591
7920 -1873 -1592
7910 -1863 -1587
7911 -1855 -1585
7917 -1848 -1583
7913 -1840 -1579
7915 -1832 -1577
7926 -1827 -1576
7929 -1819 -1573
7917 -1808 -1568
7925 -1802 -1566
7915 -1791 -1561
7942 -1789 -1562
7954 -1783 -1561
7957 -1775 -1558
7962 -1768 -1556
7982 -1764 -1556
7994 -1757 -1554
7988 -1747 -1549
8014 -1744 -1550
8027.0005 -1738 -1548
8022.0005 -1728 -1543
8036.0005 -1721 -1542
8041.0005 -1714 -1538
8049 -1706 -1535
8057.9995 -1698 -1533
8078 -1693 -1532
8088.9995 -1686 -1529
8085 -1676 -1524
8095.0005 -1668 -1521
8113 -1662 -1519
8118 -1654 -1515
8133.0005 -1647 -1512
8149.9995 -1640 -1510
8149 -1630 -1505
8168 -1624 -1503
8182.9995 -1617 -1500
8177 -1606 -1494
8198 -1599 -1492
8187.0005 -1587 -1484
8204 -1580 -1482
8238 -1576 -1482
8252 -1568 -1478
8275 -1562 -1476
8278 -1552 -1470
8298 -1545 -1468
8302 -1536 -1462
8316 -1528 -1459
8332 -1520 -1455
8320 -1507 -1446
8348 -1501 -1444
8373 -1494 -1442
8382 -1485 -1437
8400 -1477 -1433
8424 -1470 -1430
8437 -1461 -1425
8441 -1451 -1418
8440 -1439 -1411
8484 -1435 -1411
8504 -1427 -1406
8518 -1418 -1401
8523 -1407 -1394
8564 -1402 -1393
8572 -1392 -1387
8594 -1384 -1382
8596 -1372 -1374
8623 -1365 -1371
8644 -1356 -1366
8650 -1345 -1358
8666 -1336 -1352
8681 -1326 -1346
8705 -1317 -1341
8737 -1310 -1337
8766 -1302 -1333
8778 -1292 -1326
8798 -1282 -1319
8814 -1272 -1313
8849 -1265 -1309
8873 -1256 -1303
8900 -1247 -1297
8910 -1236 -1289
8938 -1227 -1284
8952 -1216 -1276
8981 -1207 -1270
9003 -1197 -1263
9026 -1188 -1256
9051 -1178 -1250
9079 -1168 -1243
9091 -1157 -1234
9131 -1149 -1229
9149 -1138 -1221
9179 -1129 -1214
9198 -1118 -1206
9225 -1108 -1199
9248 -1098 -1191
9282 -1088 -1184
9296 -1077 -1174
9318 -1066 -1166
9341 -1055 -1157
9366 -1044 -1149
9392 -1034 -1140
9429 -1024 -1133
9483 -1016.0001 -1127
9501 -1003.9999 -1117
9534 -994 -1109
9555 -983 -1099
9597 -973 -1091
9620 -962 -1082
9649 -951 -1072
9693 -941 -1064
9725 -930 -1055
9751 -918 -1044
9790 -908 -1035
9822 -897 -1026
9838 -884 -1014.0001
9867 -872 -1003
9935 -864 -997
9960 -852 -985
9979 -839 -973
10013 -828 -963
10056 -817 -953
10090 -805 -942
10126 -794 -931
10163 -782 -920
10225 -772 -911
6816 -505 -597
6792 -494 -585
6803 -485 -576
6831 -477 -569
6820 -467 -558
6806 -456 -546
6814 -447 -537
6807 -437 -526
6830 -429 -518
6853 -421 -509
6873 -412 -500
6893 -404 -491
6944 -397 -484
6965 -389 -475
6980 -380 -465
10566 -560 -688
10563 -546 -672
10584 -532 -657
10559 -516 -638
10546 -501 -621
10551 -487 -605
10535 -472 -587
10529 -457 -570
10570 -445 -555
10518 -428 -536
10515 -414 -519
10510 -400 -501.99997
10511 -385 -485
10495 -371 -467
10496 -357 -450
10472 -342 -432
10479 -328 -415
10464 -313 -396
10461 -300 -379
10449 -285 -361
10453 -272 -344
10441 -258 -326
10438 -244 -308
10437 -231 -291
10417 -217 -273
10419 -203 -255
10409 -190 -237
10405 -176 -220
10394 -163 -202
10393 -150 -184
10386 -137 -166
10385 -123 -148
10385 -110 -130
10385 -97 -112
10439 -84 -94
10673 -73 -78
10865 -61 -61
11053 -49 -42
11095 -35 -23
11153 -22 -3
11218 -8 16
11301 4 36
11384 18 56
11460 32 77
11556 46 98
11610 60 119
11695 74 141
11771 89 163
11782 103 185
11781 117 206
11776 130 227
11778 144 249
11774 157 270
11771 171 291
11783 184 313
11802 198 335
11877 212 359
14563 277 466
14670 295 497
14765 313 527
14869 331 558
14995 350 589
15148 370 624
15192 387 653
15251 405 684
15380 425 718
15530 446 754
15638 465 788
15762 485 824
15896 505.99997 860
16014 526 896
16122 546 932
16243 567 969
16396 589 1008.9999
16466 608 1044
16631 630 1085
16736 651 1123
16906 674 1166
17073 697 1209
17178 718 1249
17330 741 1292
17551 767 1342
17642 788 1382
17603 803 1412
17628 820 1447
17630 837 1480
17624 852 1513
17629 869 1546
17633 885 1579
17594 899 1609
17594 914 1642
17601 930 1675
17630 947 1711
17596 960 1741
17618 977 1776
17622 992 1809
17608 1006.0001 1841
17611 1021 1874
17597 1034 1906
17589 1048 1937
17621 1064 1974
17593 1077 2003
17682 1096 2046
17612 1106 2071
17602 1119 2102
19402 1248 2353
19478 1268 2399
22819 1503 2852
22821 1520 2895
22800 1536 2935
22806 1553 2977
22801 1569 3019
22815 1586 3062
22800 1601 3102
22800 1618 3144
22809 1633 3186
22805 1649 3228
22840 1667 3275
22845 1683 3317
22879 1701 3365
22944 1720 3415
23077 1745 3477
23216 1771 3541
23219 1786 3583
23226 1801 3626
23268 1819 3674
23318 1837 3725
23460 1863 3790
23689 1895 3869
28826 2323 4761
28823 2340 4811
28794 2354 4858
28803 2371 4911
28788 2386 4959
28759 2399 5005
28773 2416 5059
29119 2461 5171
29591 2516 5307
29761 2546 5388
29825 2567 5452
29848 2584 5509
29893 2603 5568
29887 2617 5619
29832 2627 5660
29805 2639 5707
29751 2648 5747
29665 2654 5782
29690 2670 5837
29750 2688 5899
0 0 0
28567 2606 5762
28558 2618 5808
28521 2626 5848
28537 2639 5899
0 0 0
44560 4157 9359
44523 4171 9425
44527 4188 9500
44517 4204 9569
44455 4214 9629
44450 4230 9700
44458 4247 9773
44480 4264 9850
44725 4302 9976
45012 4345 10112
45383 4394 10266
45538 4424 10373
45560 4440 10450
45616 4459 10535
45740 4485 10634
46054 4529 10778
46263 4563 10897
46285 4578 10974
46349 4596 11060
48122 4785 11557
48048 4789 11612
48041 4801 11681
28171 2822 6892
28174 2828 6935
28164 2834 6974
28127 2836 7006
47895 4840 12000
47893 4850 12069
47860 4856 12130
27938 2840 7121
27943 2846 7161
27940 2850 7200
27926 2853 7236
27905 2856 7270
27904 2860 7308
27858 2860 7334
27902 2868 7384
47696 4910 12688
47656 4912 12741
47628 4916 12797
47634 4922 12862
47603 4925 12916
47616 4931 12982
47576 4930 13033
47561 4933 13089
47544 4935 13145
47527 4937 13201
47516 4939 13258
47494 4940 13312
47473 4942 13365
47457 4943 13419
47440 4943 13472
47431 4944 13527
47415 4944 13579
47389 4943 13628
47384 4944 13681
47368 4943 13732
47343 4941 13779
47318 4939 13825
47305 4938 13875
47311 4938 13930
47275 4933 13972
47285 4933 14027
47281 4932 14077
47252 4928 14118
47239 4925 14165
47232 4922 14212
47200 4916 14252
47213 4915 14304
47194 4910 14346
47176 4906 14387
47173 4901 14434
47156 4897 14475
47133 4890 14514
47122 4886 14555
47129 4882 14601
47114 4875 14640
47091 4868 14676
47084 4862 14717
47066 4854 14753
47053 4847 14791
47047 4840 14830
47028 4832 14864
47006 4823 14897
47018 4819 14939
47005 4810 14973
47000 4802 15009
46987 4793 15042
46982 4786 15076
46958 4775 15105
46951 4766 15138
46948 4757 15171
46926 4748 15198
46943 4740 15237
46933 4730 15266
46916 4719 15293
46913 4709 15324
46915 4699 15355
46886 4687 15376
46888 4677 15406
46881 4665 15433
46862 4653 15455
46863 4642 15483
46848 4629 15505
46846 4617 15531
46854 4607 15559
46843 4594 15580
46822 4580 15598
46820 4567 15621
46820 4556 15644
46816 4542 15665
46810 4529 15685
46806 4515 15705
46810 4502 15727
46789 4486 15740
46794 4474 15760
46780 4458 15774
46791 4445 15796
46795 4431 15815
46768 4414 15822
46795 4401 15847
46772 4385 15855
46760 4370 15865
46770 4354 15882
46764 4339 15893
46764 4323 15906
46785 4310 15925
46772 4293 15932
46757 4275 15937
46751 4258 15945
46757 4241 15957
46754 4224 15965
46732 4207 15965
46773 4193 15986
46746 4173 15984
46756 4156 15993
46767 4139 16002.001
46738 4120 15997
46748 4102 16004
46755 4085 16010
46749 4066 16011
46755 4047 16014.999
46763 4028.9998 16018.999
46747 4010.0002 16014
46748 3991 16014
46753 3972 16014.999
46753 3954 16014
46760 3935 16014
46759 3915 16011
46739 3893 16000.999
46746 3874 16000
46757 3856 15998
46775 3837 15999
46757 3815 15987
46755 3794 15979
46778 3775 15980
46763 3753 15967
46769 3732 15960
46812 3716 15965
46773 3691 15942
46797 3673 15939
46794 3651 15927
46802 3630 15918
46802 3608 15905
46807 3587 15893
46822 3566 15884
46811 3543 15866
46829 3522 15856
46829 3500 15840
46823 3477 15821
46827 3455 15805
46861 3436 15798
46863 3413 15781
46867 3390 15762
46874 3368 15745
46878 3345 15725
46878 3321 15704
46876 3298 15681
46893 3277 15664
46905 3255 15644
46931 3233 15629
46930 3209 15604
46936 3186 15580
46960 3163 15562
46953 3139 15533
46952 3115 15505
46977 3092 15486
46972 3067 15455
46981 3045 15429
46975 3020 15397
47007 2997 15377
47014 2973 15348
47034 2950 15322
47018 2924 15285
47058 2901 15264
47061 2877 15232
47051 2851 15194
47088 2829 15170
47083 2805 15132
47102 2780 15102
47121 2757 15071
47118 2732 15032
47142 2707 15001
47157 2682 14967
47161 2658 14929
47184 2634 14896
47178 2610 14854
47213 2586 14823
47214 2561 14781
47250 2538 14750
47244 2512 14705
47264 2488 14667
47264 2462 14622
47289 2438 14585
47302 2412 14541
47297 2387 14493
47324 2363 14455
47348 2339 14414
47368 2314 14372
47366 2287 14322
47401 2264 14284
47403 2240 14234
47415 2215 14187
47441 2190 14144
47463 2165 14098
47470 2140 14048
47474 2114 13996
47497 2091 13949
47518 2066 13901
47549 2042 13855
47531 2015.0001 13794
47571 1991 13750
47578 1966 13695
47612 1942 13647
47612 1918 13590
47635 1893 13538
47645 1868 13482
47663 1843 13427
47694 1820 13376
47714 1796 13321
47728 1771 13264
47744 1746 13206
47764 1722 13149
47798 1699 13096
47807 1674 13035
47825 1650 12976
47860 1627 12921
47873 1603 12860
47884 1578 12796
28024 909 7450
28010 895 7408
28015 881 7370
28038 867 7336
28057 853 7301
28091 840 7269
28106 826 7232
28136 813 7199
28175 801 7168
48096 1343 12165
48133 1320 12103
48130 1296 12030
48144 1274 11961
48195 1252 11901
48205 1229 11829
48227 1207 11761
48248 1183 11691
48324 1163 11635
48361 1141 11568
48410 1119 11503
48446 1099 11435
48505 1077 11372
48515 1055 11296
48550 1033 11226
48693 1014.0001 11179
48696 992 11101
46524 928 10530
45958 896 10326
45836 873 10222
28468 529 6301
28446 517 6249
28485 505.99997 6209
28541 494 6173
30504 516 6546
30462 501.99997 6485
30389 488 6416
30338 475 6354
30372 463 6308
30396 451 6261
30441 440 6216
30444 427 6164
30396 415 6101
30416 403 6051
30441 392 6001
30492 381 5956
23365 283 4522
23356 274 4478
23360 266 4436
23379 258 4398
23390 250 4358
30608 315 5645
30611 305 5589
28830 277 5210
28878 268 5165
26867 241 4756
26872 232 4706
26862 223 4654
26878 214 4606
26928 206 4563
26950 198 4516
26926 190 4461
26783 180 4385
26662 172 4314
26606 164 4253
26569 156 4196
26546 148 4141
26556 141 4091
26558 134 4039
26530 127.00001 3984
25973 118 3849
25631 110 3748
20154 81 2908
20150 76 2867
20141 72 2827
20160 67 2790
20138 63 2746
20130 58 2704
20003 53 2648
18873 47 2461
18482 42 2373
18369 38 2321
18340 35 2280
18325 31 2241
18312 28 2202
18315 25 2165
18301 22 2126
18309 19 2090
18298 16 2051
18290 13 2013
18249 11 1971
18257 8 1934
18257 6 1896
18203 4 1853
18239 2 1819
18233 0 1781
18254 -1 1746
18255 -3 1707
18263 -4 1670
18260 -6 1632
18249 -7 1593
18089 -8 1541
17816 -9 1480
17662 -10 1430
17487 -11 1380
17324 -12 1330
17200 -12 1285
17025 -13 1236
14737 -11 1039
14617 -11 1000
14660 -11 972
14637 -11 939
14645 -11 908
14646 -11 877
14644 -11 847
14656 -11 816
14666 -10 786
14652 -10 754
14690 -9 725
14688 -8 694
14703 -7 663
14725 -6 633
14721 -5 601
14695 -4 569
14741 -3 539
14652 -1 505
11912 0 385
11857 0 358
11793 2 331
11776 3 305
11784 5 280
11783 6 255
11785 8 230
11797 10 205
11782 11 180
11664 13 153
11607 15 127.00001
11469 17 101
11414 19 77
11336 21 52
11264 23 28
11192 25 3
11100 27 -19
10996 29 -42
10771 31 -64
10473 33 -85
10380 35 -106
10373 38 -128
10374 40 -150
10378 43 -172
10386 46 -195
10384 48 -216
10398 51 -238
10395 54 -260
10404 57 -283
10421 61 -305
10425 64 -327
10425 67 -349
10430 70 -371
10438 74 -393
10447 77 -416
10448 81 -437
10448 85 -460
10468 88 -482
10470 92 -504
10490 96 -527
10490 100 -549
10498 104 -571
10504 108 -594
10519 113 -616
10516 117 -638
10528 121 -660
10530 125 -682
10533 130 -704
6950 88 -479
6918 91 -491
6885 93 -503.00003
6846 96 -514
6797 98 -524
6799 101 -538
6791 104 -551
6783 107 -564
6841 112 -583
6790 114 -592
6792 117 -606
10183 181 -930
10130 185 -945
10080 189 -961
9997 193 -973
9957 197 -989
9908 201 -1003.9999
9883 206 -1021
9834 210 -1036
9798 215 -1052
9738 218 -1064
9692 223 -1078
9659 227 -1094
9605 231 -1106
9556 235 -1119
9530 240 -1135
9470 244 -1146
9435 248 -1160
9404 252.99998 -1174
9356 257 -1186
9300 261 -1197
9289 266 -1213
9232 270 -1223
9197 275 -1236
9160 279 -1248
9112 283 -1259
9071 288 -1270
9030 292 -1282
0 0 0
7275 244 -1059
7288 249 -1075
7288 254.00002 -1088
7206 256 -1089
7175 259 -1098
7139 263 -1105
7119 267 -1115
7109 271 -1126
7090 275 -1136
7095 280 -1150
7073 284 -1158
7028 287 -1164
6988 290 -1170
6948 293 -1175
6888 295 -1177
6882 299 -1188
6842 302 -1193
6815 306 -1200
6786 309 -1207
6777 314 -1217
6775 318 -1228
6775 323 -1239
6746 327 -1245
6737 331 -1255
6728 335 -1265
6720 340 -1274
6727 345 -1287
6724 350 -1297
6722 354 -1308
6738 360 -1322
6743 365 -1334
6740 370 -1344
6750 376 -1357
6748 380 -1367
6752 386 -1379
6755 391 -1390
6762 396 -1402
6768 402 -1414
6763 406 -1423
6773 412 -1436
6767 417 -1445
6766 422 -1455
6778 428 -1467
6776 433 -1477
6784 438 -1489
6784 443 -1499
6787 449 -1510
6780 453 -1518
6773 458 -1526
6750 462 -1531
6705 464 -1530
6663 466 -1530
6644 470 -1535
6645 475 -1544
6643 480 -1553
6650 485 -1564
6640 490 -1571
6648 495 -1582
6645 500 -1590
6644 505 -1598
6629 509 -1604
6582 510.99997 -1601
6554 513 -1602
6536 517 -1607
6485 518 -1602
6457 521 -1603
6417 522 -1602
6386 525 -1602
6351 527 -1601
6309 528 -1598
6283 531 -1599
6281 535 -1606
6264 539 -1609
6267 544 -1617
6251 547 -1620
6252 552 -1628
6240 556 -1632
6239 560 -1638
6236 565 -1645
6226 568 -1649
6217 572 -1653
6215 577 -1659
6203 580 -1663
6200 585 -1669
6208 590 -1677
6194 593 -1680
6195 598 -1686
6181 601 -1689
6184 606 -1696
6173 610 -1699
6165 613 -1703
6158 617 -1707
6156 622 -1712
6141 625 -1714
6146 630 -1721
6129 632 -1722
6133 637 -1728
6124 641 -1731
6120 645 -1736
6119 649 -1740
6108 652 -1743
6103 656 -1746
6099 660 -1750
6097 664 -1755
6087 667 -1757
6081 671 -1760
6080 675 -1764
6061 677 -1763
6077 683 -1772
6063 686 -1773
6067 690 -1778
6056 693 -1780
6059 698 -1784
6062 702 -1790
6058 706 -1793
6047 709 -1793
6059 714 -1801
6056 718 -1804
6057 722 -1808
6058 726 -1812
6052 729 -1813
6060 734 -1819
6050 737 -1820
6041 740 -1821
6046 744 -1825
6050 748 -1830
6040 751 -1830
6048 756 -1835
6043 759 -1837
6045 763 -1840
6041 766 -1842
6034 769 -1842
6052 775 -1851
6046 778 -1851
6051 782 -1855
6043 784 -1855
6048 789 -1859
6042 791 -1860
6052 796 -1865
6039 798 -1863
6041 801 -1866
6040 805 -1867
6043 808 -1870
6036 811 -1869
6035 814 -1871
6040 818 -1874
6038 821 -1875
6042 825 -1877
6038 827 -1878
6031 829 -1877
6040 834 -1880
6036 836 -1880
6037 840 -1882
6037 843 -1883
6037 846 -1884
6036 849 -1884
6038 852 -1885
6036 854 -1885
6036 857 -1886
6040 860 -1888
6036 863 -1887
6032 865 -1886
6035 868 -1887
6023 869 -1883
6031 873 -1886
6042 877 -1889
6034 878 -1886
6033 881 -1886
6040 884 -1888
6030 885 -1884
6035 888 -1886
6031 890 -1884
6039 894 -1886
6039 896 -1885
6035 898 -1883
6032 899 -1881
6040 903 -1883
6027 903 -1878
6033 906 -1879
6026 907 -1875
6039 911 -1878
6037 913 -1876
6037 915 -1875
6024 915 -1869
6036 919 -1871
6040 921 -1871
6036 922 -1868
6043 925 -1868
6037 926 -1865
6029 926 -1860
6030 928 -1858
6030 930 -1856
6038 933 -1857
6038 934 -1855
6031 934 -1850
6036 937 -1849
6037 938 -1847
6041 940 -1846
6029 940 -1839
6035 942 -1838
6041 944 -1837
6029 943 -1831
6050 948 -1834
6041 948 -1828
6047 950 -1827
6032 948 -1819
6031 949 -1816
6036 951 -1814
6035 952 -1810
6039 953 -1808
6041 954 -1805
6041 955 -1801
6042 956 -1798
6052 958 -1797
6044 958 -1791
6041 958 -1786
6053 960 -1785
6041 959 -1778
6037 959 -1773
6036 959 -1768
6043 960 -1766
6049 962 -1763
6043 961 -1757
6044 961 -1753
6050 962 -1750
6049 962 -1745
6047 962 -1740
6057 964 -1738
6054 963 -1732
6051 963 -1726
6049 962 -1721
6053 963 -1717
6059 964 -1714
6066 965 -1710
6052 962 -1701
6064 964 -1699
6053 962 -1691
6057 962 -1686
6058 962 -1681
6056 961 -1675
6064 962 -1671
6068 962 -1666
6068 961 -1661
6062 959 -1653
6070 960 -1650
6069 959 -1643
6064 957 -1636
6075 958 -1633
6066 956 -1624
6070 955 -1619
6074 955 -1613
6083 955 -1609
6088 955 -1604
6112 958 -1604
6131 960 -1602
6146 961 -1600
6152 960 -1594
6169 961 -1592
6190 963 -1590
6220 966 -1591
6296 977 -1603
6325 980 -1603
6388 988 -1612
6440 994 -1618
6523 1005 -1631
6529 1003.9999 -1624
6553 1006.0001 -1623
6554 1003.9999 -1615
6579 1006.0001 -1613
6589 1005 -1607
6607 1006.0001 -1604
6626 1006.0001 -1600
6638 1006.0001 -1595
6653 1006.0001 -1590
6669 1006.0001 -1585
6689 1006.0001 -1581
6696 1005 -1575
6715 1005 -1571
6724 1003.9999 -1564
6752 1006.0001 -1562
6751 1003 -1553
6786 1005 -1552
6803 1005 -1546
6826 1005 -1542
6837 1003.9999 -1535
6856 1003 -1531
6873 1003 -1525
6899 1003 -1521
6912 1002 -1515
6930 1001.0001 -1509
6945 1000 -1503
6965 999 -1498
6982 998 -1491
7009 998 -1487
7013 995 -1478
7040 995 -1474
7067 995 -1469
7081 993 -1462
7106 993 -1457
7122 991 -1450
7152 991 -1445
7163 988 -1437
7207 990 -1436
7212 987 -1426
7234 985 -1419
7264 985 -1414
7287 983 -1408
7295 980 -1399
7333 980 -1395
7356 979 -1388
7383 977 -1382
7413 976 -1376
7428 973 -1368
7459 972 -1362
7488 971 -1356
7498 967 -1346
7529 966 -1340
7548 963 -1332
7568 960 -1324
7587 957 -1315
7615 955 -1308
7649 953 -1302
7686 952 -1297
7704 948 -1288
7736 946 -1281
7749 942 -1270
7787 941 -1265
7815 938 -1257
7835 934 -1247
7872 932 -1240
7875 926 -1228
7884 920 -1217
7881 913 -1204
7876 906 -1190
7863 898 -1176
7857 890 -1162
7838 881 -1147
7848 876 -1135
7832 867 -1120
7831 860 -1107
7861 856 -1099
7888 852 -1089
7924 848 -1081
8149.9995 865 -1099
7964 837 -1060
7971 831 -1048
9296 960 -1207
9342 956 -1198
9396 952 -1190
9432 947 -1179
9457 940 -1166
9488 934 -1154
9529 928 -1144
9574 923 -1133
9603 916 -1120
9641 910 -1109
9671 903 -1096
9710 896 -1085
9747 890 -1073
9793 883 -1061
6843 610 -730
6825 601 -717
6820 593 -705
6816 586 -693
6815 578 -682
6808 570 -670
6805 562 -658
6805 555 -647
6809 547 -636
6792 538 -623
6786 530 -611
6779 522 -599
6781 514 -588
6770 505 -576
6772 498 -565
6772 490 -553
6780 482 -543
6808 476 -533
6839 470 -525
6868 464 -515
6902 458 -505.99997
6926 451 -497
6940 443 -486
10506 658 -719
10500 645 -701
10486 631 -683
10486 618 -666
10491 605 -649
10481 591 -631
10469 577 -613
10465 564 -596
10472 550 -579
10462 536 -561
10449 522 -543
10449 508.00003 -526
10441 494 -509
10436 480 -491
10437 467 -475
10442 453 -458
10438 439 -441
10428 424 -424
10418 410 -406
10417 395 -389
10407 381 -372
10405 367 -356
10408 352 -339
10397 338 -322
10389 323 -305
10402 309 -289
10381 294 -272
10390 279 -255
10384 264 -239
10372 249 -222
10373 234 -206
10364 219 -189
10370 204 -173
10366 189 -156
10358 174 -140
10373 159 -124
10395 145 -109
10521 131 -93
10730 118 -79
10897 104 -63
11037 88 -47
11077 72 -31
11111 56 -14
11205 40 2
11268 23 20
11336 6 37
11367 -10 54
11425 -28 72
11494 -45 89
11577 -63 107
11632 -82 125
11673 -100 143
11758 -119 162
11800 -138 180
11810 -156 197
11795 -174 214
11806 -193 231
11794 -211 249
11787 -230 266
11781 -248 282
11792 -267 299
11804 -286 317
11841 -305 335
11842 -324 351
11858 -344 369
11883 -363 386
14410 -463 488
14438 -487 509
14503 -513 531
14551 -538 553
14545 -561 574
14572 -586 595
14584 -610 615
14643 -636 637
14609 -659 656
14592 -682 675
14548 -703 692
14541 -727 711
14546 -751 731
14595 -777 752
14627 -803 773
14671 -829 794
14693 -855 815
14746 -882 837
14762 -907 857
14801 -934 878
14844 -962 899
14891 -989 921
14922 -1016.0001 942
14956 -1043 962
14980 -1070 983
15033 -1099 1005
15065 -1126 1025
15103 -1154 1046
15138 -1182 1067
15172 -1210 1088
15216 -1238 1109
15254 -1267 1130
15298 -1296 1151
15320 -1323 1171
15361 -1353 1192
15403 -1382 1213
15424 -1410 1233
15481 -1441 1255
15524 -1471 1276
15544 -1499 1296
15593 -1530 1317
15626 -1559 1337
15665 -1589 1358
15703 -1619 1379
15801 -1656 1405
15831 -1686 1425
15890 -1719 1447
15954 -1752 1470
16056 -1791 1497
18769 -2125 1770
18777 -2157 1790
18748 -2185 1807
18783 -2220 1830
18773 -2250 1848
18794 -2284 1869
18747 -2310 1883
18723 -2338 1899
18726 -2370 1918
18723 -2401 1936
18707 -2430 1953
18708 -2460 1971
18716 -2492 1990
18675 -2517 2003
18664 -2547 2020
18649 -2576 2035.0001
18681 -2611 2056
18652 -2638 2070
18611 -2662 2083
18610 -2693 2099
18590 -2720 2114
18597 -2751 2131
18537 -2773 2140
18469 -2793 2149
18487 -2826 2166
18499 -2858 2184
18488 -2886 2198
18428 -2907 2207
18402 -2933 2219
18496 -2977 2245
18492 -3007 2260
18472 -3032 2272
18413 -3052 2279
18366 -3073 2288
18331 -3097 2298
18363 -3131 2316
18345 -3157 2327
18331 -3183 2340
18335 -3212 2354
18374 -3248 2372
18533 -3305 2406
18933 -3407 2472
19632 -3562 2577
19721 -3609 2602
19755 -3645 2620
19755 -3676 2634
19738 -3703 2646
19730 -3732 2657
19697 -3756 2666
19673 -3782 2676
19683 -3813 2690
19626 -3832 2694
19643 -3864 2709
19645 -3894 2722
19624 -3919 2730
19552 -3934 2732
19601 -3973 2750
19560 -3993 2756
19592 -4028.9998 2772
19601 -4059 2784
21820 -4550 3112
21794 -4576 3120
21788 -4607 3131
21839 -4649 3150
21833 -4678 3161
21767 -4695 3163
21738 -4721 3170
21708 -4744 3176
21734 -4780 3191
21727 -4809 3200
21758 -4847 3215
21873 -4902 3243
21905 -4940 3257
23123 -5245 3449
23164 -5286 3465
23170 -5319 3476
23253 -5369 3498
23360 -5425 3524
23362 -5455 3534
23403 -5496 3550
23464 -5541 3569
23626 -5611 3602
23650 -5647 3615
23717 -5693 3634
23755 -5733 3648
23729 -5757 3653
23833 -5812 3677
23970 -5876 3706
24004 -5913 3719
24076 -5961 3738
24198 -6021 3765
24265 -6067 3782
24233 -6088 3784
24219 -6114 3789
24201 -6137 3793
24158 -6156 3793
24157 -6183 3799
24324 -6254 3832
24334 -6284 3840
24368 -6321 3851
24441 -6368 3868
24525 -6416 3887
24655 -6478 3913
24613 -6494 3911
24591 -6515 3913
24642 -6555 3925
24655 -6585 3931
24614 -6600 3929
24708 -6650 3949
0 0 0
24881 -6749 3984
24857 -6767 3984
24733 -6759 3967
24877 -6823 3993
0 0 0
21900 -6050 3520
21855 -6058 3515
0 0 0
21706 -6058 3495
21642 -6061 3487
21643 -6081 3489
21623 -6095 3487
21625 -6114 3489
21619 -6132 3489
21610 -6148 3489
21614 -6168 3489
21604 -6184 3488
21639 -6212 3494
21572 -6211 3484
21625 -6244 3493
24970 -7230 4033
24974 -7251 4033
25004 -7279 4038
24970 -7289 4032
24973 -7309 4031.0002
24953 -7322 4027
24950 -7339 4025
24914 -7347 4018.0002
24885 -7356 4011.0002
24757 -7335 3989
24786 -7361 3992
24804 -7384 3993
24756 -7385 3983
24708 -7387 3973
24683 -7395 3967
24685 -7411 3964
24662 -7420 3957
24604 -7417 3944
24532 -7410 3929
24575 -7437 3933
24517 -7434 3920
24564 -7462 3924
24487 -7451 3907
24482 -7463 3903
24468 -7472 3896
24491 -7491 3895
24345 -7458 3867
24368 -7477 3866
24316 -7472 3853
24288 -7475 3843
24243 -7472 3831
24128 -7446 3807
24159 -7466 3806
24199 -7488 3807
24072 -7458 3781
23938 -7425 3754
23906 -7424 3742
23899 -7430 3735
23884 -7434 3726
23854 -7432 3714
23814 -7427 3702
23754 -7416 3685
23723 -7413 3673
23707 -7414 3664
23667 -7408 3650
23664 -7413 3641
23631 -7408 3629
23535 -7383 3607
23521 -7383 3596
23461 -7369 3579
23446 -7368 3569
23406 -7360 3554
23349 -7345 3538
23365 -7354 3531
23286 -7332 3510
23241 -7320 3495
23230 -7319 3484
23132 -7290 3460
23037 -7262 3437
23027 -7260 3426
22994 -7250 3412
22903 -7222 3389
22773 -7182 3360
22705 -7160 3340
22623 -7135 3318
22492 -7093 3289
22411 -7066 3267
22351 -7046 3248
22263 -7017 3225
22278 -7020 3217
22120 -6968 3184
22157 -6978 3179
21501 -6769 3074
21109 -6643 3008
21013 -6610 2984
20905 -6572 2958
20893 -6565 2946
20868 -6553 2932
20836 -6539 2917
20818 -6529 2903
20797 -6518 2889
20785 -6509 2877
20777 -6501 2865
20778 -6496 2854
20772 -6488 2841
20763 -6480 2829
20767 -6474 2818
18563 -5781 2508
18536 -5767 2494
18533 -5759 2483
18568 -5764 2477
18571 -5758 2467
18533 -5739 2451
18543 -5734 2442
18579 -5738 2436
18565 -5726 2423
18540 -5710 2408
18561 -5708 2400
18572 -5703 2390
18565 -5692 2378
18565 -5683 2366
18576 -5677 2356
18611 -5678 2349
18622 -5671 2339
18614 -5659 2326
18620 -5650 2315
18614 -5638 2302
18572 -5615 2286
18504 -5583 2265
18451 -5556 2247
18374 -5521 2225
18242 -5469 2197
18124 -5423 2171
17811 -5317 2122
17621 -5249 2087
17488 -5197 2059
17401 -5159 2038.0001
17339 -5128 2019
17300 -5104 2003
17303 -5092 1991
17270 -5069 1975
17295 -5064 1966
17310 -5055 1956
17315 -5043 1945
17317 -5029 1933
17324 -5017 1921
17289 -4993 1905
17285 -4977 1892
17301 -4967 1882
17296 -4951 1869
17314 -4941 1858
17342 -4933 1849
17336 -4916 1836
17354 -4905 1825
17375 -4895 1815
17371 -4878 1802
17388 -4866 1791
17386 -4849 1778
17398 -4835 1766
17398 -4818 1754
17408 -4803 1742
17390 -4781 1727
17416 -4770 1717
17406 -4750 1703
17423 -4736 1692
17408 -4714 1677
17443 -4705 1668
17428 -4682 1653
17417 -4659 1639
17429 -4644 1627
17449 -4629 1616
17475 -4617 1605
17459 -4592 1590
17476 -4577 1579
17474 -4556 1565
17430 -4525 1549
17444 -4507 1536
17446 -4487 1523
17480 -4475 1513
17481 -4454 1500
17491 -4435 1487
17496 -4414 1474
17497 -4393 1461
17510 -4374 1449
17545 -4360 1438
17565 -4343 1427
17599 -4328 1416
17584 -4302 1402
17614 -4286 1390
17579 -4254 1375
17580 -4231 1361
17564 -4203 1346
17492 -4162 1327
17375 -4111 1305
17339 -4078 1289
17287 -4043.0002 1273
17215 -4001 1254
17115 -3954 1234
17043 -3913 1216
16986 -3877 1199
16880 -3828 1179
16791 -3783 1160
16769 -3754 1146
16698 -3714 1128
16580 -3663 1108
16483 -3617 1089
16446 -3585 1075
16412 -3552 1060
16332.001 -3510 1043
16177.999 -3452 1021
16150 -3422 1007
16098 -3386 992
16020 -3344 975
15988 -3313 961
15945 -3278 946
15934 -3251 934
15877 -3214 919
15805 -3175 904
15799 -3148 892
15696 -3102 875
15673 -3072 862
15669 -3045 851
15595 -3006 835
15582 -2977 823
12602 -2387 657
12558 -2357 645
12565 -2338 637
12554 -2314 627
12512 -2285 616
12453 -2253 605
12474 -2236 597
12502 -2219 590
12503 -2198 581
12504 -2177 573
12389 -2135 559
12308 -2100 547
12272 -2072 537
12290 -2053 530
12266 -2027 520
12281 -2007.9999 513
12289 -1987 505
12290 -1965 497
12295 -1943 489
12282 -1919 480
12158 -1877 467
12129 -1851 458
12095 -1824 449
12060 -1796 440
12022 -1768 431
12032 -1747 424
11986 -1718 415
11971 -1693 407
11958 -1669 399
11920 -1641 390
11898 -1616 382
11883 -1592 375
11868 -1567 367
11863 -1543 360
11872 -1522 353
11853 -1496 346
11858 -1475 339
11855 -1451 332
11855 -1428 325
11857 -1406 319
11852 -1382 312
11855 -1359 306
11848 -1335 299
11847 -1312 292
11860 -1290 286
11853 -1266 280
11843 -1241 273
11854 -1219 267
11856 -1195 261
11859 -1172 255
11855 -1148 249
11855 -1124 243
11857 -1101 237
11861 -1077 231
11854 -1053 226
11848 -1028 220
11847 -1003.9999 214
11835 -979 208
11834 -955 203
11833 -931 198
11811 -905 192
11791 -879 186
11765 -853 181
11734 -826 175
11711 -800 170
11699 -775 165
11666 -749 159
11667 -726 155
11660 -701 150
11632 -675 145
11633 -651 140
11655 -628 136
11627 -602 132
11611 -577 127.00001
11585 -551 123
11580 -527 118
11553 -501.99997 114
11530 -477 110
11530 -453 106
11506 -428 102
11503 -403 98
11472 -378 94
11463 -353 91
11461 -329 87
11452 -305 84
11427 -280 80
11425 -256 77
11423 -232 74
11414 -207 71
11400 -183 68
11393 -158 65
11386 -134 62
11372 -110 59
11356 -85 56
11341 -61 53
11364 -37 51
11341 -12 48
11337 11 46
11334 35 44
11325 59 41
11310 83 39
11303 108 37
11300 131 35
11300 156 33
11302 180 32
11284 204 30
11274 227 28
11289 252 27
11285 276 25
11262 300 24
11236 323 22
11254 347 21
11262 372 20
11261 395 19
11248 419 18
11251 443 17
11250 467 16
11245 491 15
11255 515 14
11258 539 14
11264 564 13
11250 587 13
11248 611 12
11254 636 12
11253 659 12
11257 683 11
11242 706 11
11256 731 11
11246 754 11
11257 779 12
11272 804 12
11262 827 12
11264 851 12
11264 875 13
11251 898 13
11266 922 14
11266 946 15
11271 969 15
11279 994 16
11289 1018 17
11287 1041 18
11289 1065 19
11286 1088 20
11291 1112 22
11292 1135 23
11318 1162 24
11312 1184 26
11324 1210 27
11341 1235 29
11340 1258 30
11351 1282 32
11345 1305 34
11348 1329 36
11358 1353 38
11356 1375 40
11375 1401 42
11376 1424 44
11384 1447 46
11385 1470 48
11384 1493 51
11375 1515 53
11363 1536 56
11316 1552 58
11351 1579 61
11327 1598 63
11330 1621 66
11344 1645 69
11361 1670 72
11365 1693 75
11347 1712 78
11379 1739 81
11388 1763 84
11396 1786 87
11391 1807 90
11402 1831 94
11420 1856 97
11417 1877 101
11440 1903 105
11447 1926 108
11435 1946 112
11471 1974 116
11499 2000 120
11505 2022.0001 124
11516 2046 128
11516 2067 132
11543 2093 136
11554 2117 140
11544 2137 144
11614 2170 149
11605 2190 153
11624 2215 158
11640 2239 162
11663 2264 167
11680 2288 172
11694 2312 177
11715 2337 181
11732 2361 186
11751 2386 191
11758 2408 196
11785 2434 202
11775 2452 206
11837 2485 212
11854 2510 217
11893 2539 223
11931 2567 229
11967 2595 235
12005 2623 241
12047 2653 247
12085 2681 252.99998
12113 2707 259
12143 2734 265
12160 2758 271
12196 2786 278
12202 2807 283
12227 2833 290
12252 2858 296
12283 2885 302
12292 2907 308
12318 2932 315
12347 2958 321
12375 2984 328
12385 3006 334
12434 3037 342
12441 3058 348
12453 3080 355
12475 3103 361
12489 3126 368
12513 3150 375
12542 3176 382
12561 3199 389
12588 3224 396
12619 3251 403
12664 3280 411
12655 3296 417
12705 3327 426
12730 3351 433
12743 3372 440
12809 3408 449
12893 3447 458
13040 3504 470
13246 3578 485
13474 3657 500
13602 3710 512
13681 3749 522
13690 3770 530
13726 3797 539
13738 3818 546
13788 3849 556
13800 3870 564
13824 3894 572
13810 3907 579
13840 3932 587
13840 3949 595
13856 3970 603
13862 3988 611
13876 4008 619
13893 4028.9998 627
13905 4047.9998 635
13901 4063.0002 643
13916 4083.0002 651
13919 4099 658
13947 4123 668
14058 4171 680
14007 4171 686
13944 4167 690
13993 4197 700
14030 4222 710
16139 4874 825
16191 4906 837
16216.999 4930 847
16236 4951 857
16263 4976 867
16296 5002 878
16379.999 5043 891
16398 5064 901
16435 5090 912
16489 5122 924
16539 5152 936
16598 5186 949
16628 5210 959
16656 5233 970
16711 5264 982
16708 5277 991
16799 5319 1005
16805 5334 1014.0001
16846 5361 1026
16855 5377 1036
16892 5401 1047
16911 5420 1057
16956 5447 1069
17035 5485 1083
17041 5499 1092
17044 5511 1102
17016 5514 1109
16988 5517 1116
16949 5515 1122
16916 5515 1129
16865 5509 1134
16833 5509 1141
16807 5510 1148
16772 5508 1154
16710 5497 1158
16686 5499 1165
16648 5495 1170
16672 5512 1181
16681 5523 1190
16667 5527 1197
16690 5542 1207
16673 5545 1214
16688 5557 1224
16670 5559 1231
16670 5566 1238
16679 5576 1248
16673 5580 1256
16671 5586 1263
16684 5597 1272
