# .PCD v0.7 - Point Cloud Data file format
VERSION 0.7
FIELDS x y z
SIZE 4 4 4
TYPE F F F
COUNT 1 1 1
WIDTH 3026
HEIGHT 1
VIEWPOINT 0 0 0 1 0 0 0
POINTS 3026
DATA ascii
0 0 0
43358 -6445 10210
0 0 0
0 0 0
0 0 0
0 0 0
0 0 0
43256 -6693 10419
0 0 0
0 0 0
0 0 0
0 0 0
0 0 0
0 0 0
0 0 0
0 0 0
43270 -7080 10743
28551 -4699 7110
0 0 0
49047 -8167 12288
28650 -4798 7198
28606 -4817 7208
49004 -8299 12383
49016 -8347 12420
48998 -8390 12449
49001 -8436 12483
49000 -8480 12517
48978 -8521 12542
48960 -8564 12569
48970 -8610 12602
48974 -8653 12635
48942 -8691 12655
48949 -8736 12686
48948 -8779 12716
48933 -8819 12740
48933 -8862 12767
48944 -8906 12797
48881 -8937 12807
48922 -8986 12843
48917 -9026 12867
48913 -9065 12891
48904 -9104 12912
48842 -9133 12919
48579 -9124 12873
48582 -9164 12895
48584 -9203 12917
48582 -9242 12938
48560 -9276 12952
48562 -9315 12973
48565 -9352 12993
48550 -9386 13008
48550 -9422 13026
48559 -9460 13046
48556 -9496 13062
48546 -9530 13076
48532 -9562 13089
48545 -9599 13107
48548 -9635 13123
29795 -5934 8062.0005
29713 -5938 8048.0005
48550 -9737 13164
48519 -9764 13168
48555 -9804 13189
48548 -9835 13198
48523 -9861 13202
48539 -9896 13217
48560 -9932 13232
48550 -9961 13239
48550 -9992 13247
48538 -10019 13252
48553 -10052 13263
29666 -6160 8108
0 0 0
0 0 0
29145 -6103 7975
29221 -6136 7999
29268 -6163 8014
29285 -6182 8021
29246 -6191 8012
29184 -6192 7996
29241 -6220 8012.9995
29255 -6238 8017
29442 -6293 8069
29691 -6362 8137
29672 -6372 8132
48568 -10454 13309
48547 -10472 13302
48555 -10497 13301
48569 -10523 13302
48563 -10542 13298
48576 -10567 13297
48595 -10592 13298
48559 -10605 13282
48596 -10632 13288
48597 -10652 13281
48589 -10669 13273
48585 -10688 13264
48603 -10709 13261
48583 -10723 13247
48578 -10738 13238
48618 -10764 13239
48597 -10776 13223
48608 -10795 13215
48628 -10814 13210
48609 -10825 13193
48627 -10846 13185
48628 -10860 13172
48631 -10875 13159
48627 -10886 13145
48655 -10906 13138
48614 -10909 13111
48660 -10930 13109
48654 -10941 13091
48681 -10958 13082
48729 -10980 13077
48754 -10995 13066
48783 -11012 13055
48759 -11016 13030
48793 -11032 13019
48784 -11037 12998
48782 -11044 12976
48815 -11059 12964
48790 -11060 12937
48800 -11068 12917
48798 -11074 12894
48802 -11080 12872
48765 -11076 12838
48784 -11085 12819
48789 -11091 12796
48780 -11091 12769
48824 -11105 12753
48789 -11099 12718
48805 -11104 12696
48819 -11109 12672
48833 -11112 12649
48843 -11116 12623
48841 -11114 12594
48828 -11111 12561
48848 -11115 12537
48863 -11117 12510
48846 -11110 12476
48842 -11107 12443
48926 -11123 12433
48913 -11116 12397
0 0 0
0 0 0
0 0 0
29708 -6740 7449
29763 -6749 7441
29744 -6740 7415
29774 -6742 7401
0 0 0
48944 -11069 12094
49051 -11084 12083
48997 -11063 12032
45168 -10190 11057
45236 -10196 11038
45244 -10188 11004
45228 -10174 10964
45228 -10163 10928
45141 -10133 10868
44969 -10082 10791
44629 -9994 10672
44561 -9967 10617
44582 -9957 10584
44537 -9935 10534
44585 -9932 10506
44565 -9912 10463
44418 -9865 10389
44462 -9860 10359
27278 -6040 6330
27297 -6034 6310
27257 -6015 6275
27277 -6009 6254
27410 -6028 6259
27383 -6011 6227
27353 -5993 6193
27312 -5972 6158
27242 -5945 6116
27027 -5886 6041
26975 -5863 6003
26894 -5833 5958
26900 -5821 5932
26913 -5811 5908
26974 -5811 5894
27104 -5825 5894
27123 -5815 5871
27068 -5789 5831
0 0 0
30896 -6575 6591
30948 -6569 6569
30968 -6556 6540
28972 -6117 6087
28848 -6074 6030
28805 -6047 5990
28782 -6025 5953
28744 -5999 5914
28735 -5979 5880
28705 -5954 5842
28676 -5931 5803
0 0 0
26908 -5529 5385
26697 -5467 5312
26701 -5450 5282
26683 -5428 5247
26678 -5408 5216
26719 -5397 5193
26717 -5377 5161
26748 -5364 5135
26756 -5345 5105
26784 -5331 5079
26809 -5315 5052
26843 -5301 5026
26934 -5298 5011
27010 -5291 4992
27078 -5283 4972
27093 -5264 4941
27118 -5246 4913
27123 -5224 4881
27125 -5202 4848
27140 -5182 4817
27149 -5160 4785
27163 -5139 4753
27179 -5118 4723
27421 -5139 4730
27515 -5132 4711
27539 -5111 4681
24782 -4577 4181
24765 -4550 4147
24850 -4543 4129
24799 -4510 4089.0002
24797 -4486 4057.0002
24798 -4462 4025
24782 -4434 3991
24771 -4408 3957
24706 -4371 3914
24501 -4310 3849
24211 -4235 3773
23737 -4128 3668
23646 -4087 3622
23440 -4027 3560
23082 -3941 3475
22908 -3887 3419
22696 -3827 3358
22594 -3785 3313
19972 -3324 2901
19989 -3305 2877
19999 -3284 2852
19998 -3262 2825
20034 -3245 2803
20047 -3223 2778
20040 -3199 2750
20033 -3175 2723
19646 -3091 2643
18805 -2936 2505
18629 -2888 2457
18576 -2857 2425
18570 -2833 2399
18575 -2812 2374
18600 -2793 2352
18592 -2769 2327
18588 -2745 2301
18617 -2726 2279
18626 -2704 2255
18645 -2683 2232
18630 -2658 2205
18648 -2636 2182
18679 -2616 2160
18691 -2594 2136
18697 -2570 2111
18707 -2547 2087
18691 -2521 2060
18710 -2499 2037
18697 -2472 2010
18702 -2447 1985
18697 -2422 1960
18750 -2403 1940
18751 -2377 1914
18762 -2353 1890
18777 -2329 1866
18751 -2299 1838
18778 -2276 1816
18758 -2247 1789
16221.001 -1920 1525
16174.999 -1892 1498
16066 -1856 1467
15878 -1811 1428
15859 -1786 1405
15819 -1759 1380
15787 -1732 1356
15730 -1702 1330
15698 -1676 1306
15665 -1649 1282
15612 -1620 1257
15569 -1592 1233
15537 -1565 1209
15509 -1538 1186
15473 -1511 1163
15431 -1483 1139
15391 -1456 1116
15363 -1429 1093
15316 -1401 1070
15265 -1372 1046
15219 -1344 1023
15179 -1317 1000
15142 -1290 978
15113 -1263 956
15075 -1236 934
15045 -1209 913
14980 -1180 889
14970 -1155 869
14928 -1128 848
14896 -1101 827
14885 -1076 807
14843 -1048 785
14814 -1021.9999 765
14785 -996 745
14761 -969 725
14744 -944 705
14700 -916 684
14693 -891 665
14646 -863 645
14626 -837 625
14585 -810 605
14571 -784 586
14573 -759 568
14593 -735 551
14609 -711 534
14600 -685 515
11886 -537 405
11884 -517 391
11842 -495 375
11827 -473 360
11837 -453 346
11808 -431 332
11800 -410 317
11788 -389 303
11794 -368 289
11793 -347 275
11801 -326 262
11806 -305 248
11816 -285 235
11817 -264 221
11813 -243 207
11799 -221 193
11797 -200 180
11740 -177 166
11665 -156 152
11648 -134 138
11607 -112 125
11516 -90 111
11503 -69 98
11456 -47 85
11402 -26 72
11382 -4 59
11324 16 46
11292 36 34
11258 57 22
11213 77 10
11175 98 -1
11143 118 -13
11111 139 -24
11056 159 -36
10972 178 -47
10899 197 -58
10784 216 -68
10703 234 -78
10586 250.99998 -88
10440 268 -98
10386 286 -107
10374 305 -117
10362 324 -127.00001
10356 344 -137
10358 363 -147
10352 383 -157
10360 403 -167
10365 423 -177
10366 443 -187
10362 462 -197
10357 482 -206
10350 501 -216
10366 522 -226
10362 541 -235
10365 562 -244
10365 582 -254.00002
10372 602 -263
10369 622 -272
10373 642 -281
10376 662 -291
10376 682 -299
10382 702 -308
10375 722 -317
10381 742 -326
10366 761 -334
10379 782 -343
10378 802 -351
10386 822 -360
10403 844 -369
10415 865 -378
10432 887 -387
10446 908 -395
10462 930 -404
10482 952 -413
10508 974 -422
10524 996 -430
10542 1018 -439
10550 1039 -447
10567 1061 -456
10578 1082 -464
10592 1103 -472
10618 1127 -481
10618 1147 -488
10653 1172 -497
10671 1194 -505
10692 1217 -513
10700 1238 -521
10726 1262 -529
10736 1284 -537
10752 1306 -545
10769 1329 -552
10784 1351 -560
10801 1374 -568
10810 1396 -575
10839 1420 -583
10857 1443 -591
10870 1465 -598
10880 1487 -605
10899 1511 -612
10916 1533 -619
10929 1555 -626
10946 1579 -633
10963 1601 -640
10981 1625 -647
10994 1647 -654
11011 1670 -661
11034 1694 -668
11039 1715 -674
11043 1736 -680
11052 1758 -686
11057 1779 -692
11033 1796 -695
11007 1812 -699
10991 1829 -703
10995 1850 -708
10957 1863 -711
10960 1884 -716
10954 1902 -720
10926 1917 -723
10907 1934 -727
10891 1951 -730
10906 1973 -736
10907 1992 -740
10872 2005.0001 -742
10864 2023 -746
10849 2039 -749
10850 2059 -753
10845 2077 -756
10837 2094 -760
10815 2109 -762
10806 2126 -765
10794 2142 -768
10778 2158 -770
10754 2172 -772
10746 2188 -775
10764 2210 -780
10748 2225 -782
10762 2247 -786
10739 2260 -787
10714 2273 -789
10735 2295 -793
10723 2310 -795
10682 2319 -795
10680 2337 -798
10684 2355 -800
10676 2371 -802
10671 2387 -804
10658 2402 -806
10625 2412 -806
10646 2433 -810
10650 2451 -812
10630 2464 -813
10640 2483 -816
10630 2497 -817
10621 2512 -818
10617 2527 -820
10616 2544 -821
10603 2557 -822
10612 2575 -825
10597 2588 -825
10603 2605 -827
10587 2618 -827
10576 2631 -828
10576 2647 -829
10589 2666 -831
10578 2679 -831
10580 2695 -833
10566 2707 -833
10568 2723 -834
10574 2739 -835
10560 2751 -835
10530 2758 -833
10552 2779 -836
10568 2798 -838
10551 2808 -837
10537 2819 -836
10543 2835 -837
10542 2849 -838
10518 2856 -836
10538 2876 -838
10520 2885 -837
10534 2903 -838
10544 2919 -839
10530 2929 -838
10529 2942 -838
10525 2954 -837
9378 2644 -746
8991 2547 -715
9035 2570 -718
9014 2576 -716
8993 2580 -715
8999 2593 -715
8989 2601 -713
8994 2613 -713
9011 2628 -714
9293 2721 -736
9262 2723 -733
9192 2713 -727
9209 2729 -727
9018 2682 -711
9004 2688 -709
9002 2697 -708
9075 2729 -713
9154 2763 -719
9113 2760 -714
9112 2769 -713
9097 2774 -711
9097 2783 -710
9082 2788 -708
9066 2792 -705
9077 2805 -704
9076 2813 -703
9061 2817 -701
9053 2824 -699
9065 2836 -698
9087 2851 -698
9088 2860 -697
9091 2869 -696
9109 2883 -695
9158 2906 -697
9294 2958 -706
9074 2895 -688
9081 2905 -687
9060 2906 -683
9074 2918 -682
9071 2924 -680
9068 2930 -678
9205 2981 -686
9145 2969 -680
9172 2984 -680
9183 2995 -678
9205 3009 -678
9234 3024 -678
9164 3008 -670
9236 3038 -674
9245 3047 -672
9191 3035 -666
9276 3069 -669
9219 3056 -663
9282 3083 -665
9263 3081 -661
9611 3203 -683
9640 3218 -683
0 0 0
10485 3512 -737
10585 3551 -741
10662 3582 -743
10768 3623 -747
10798 3638 -746
10822 3651 -745
10843 3663 -743
10869 3677 -741
10864 3680 -737
10880 3690 -735
10885 3696 -732
10894 3703 -729
10912 3713 -727
10920 3720 -723
10920 3724 -719
10936 3733 -717
10950 3741 -714
10971 3751 -712
10971 3755 -708
10992 3765 -705
10993 3768 -701
11005 3775 -698
11025 3784 -696
11030 3788 -692
11047 3796 -689
11049 3799 -685
11054 3802 -682
11080 3813 -679
11081 3815 -675
11110 3826 -673
11111 3828 -668
11128 3835 -665
11144 3842 -661
11145 3843 -657
11181 3856 -655
11181 3856 -651
11181 3856 -647
11197 3862 -643
11218 3869 -640
11237 3875 -636
11237 3875 -631
11238 3875 -627
11249 3878 -623
11270 3884 -620
11283 3888 -616
11296 3891 -611
11300 3891 -607
11325 3898 -604
11347 3904 -600
11367 3909 -596
11376 3910 -592
11392 3914 -588
11400 3914 -583
11414 3916 -579
11432 3920 -575
11458 3926 -571
11464 3925 -566
11469 3923 -561
11504 3932 -558
11505 3929 -553
11531 3934 -549
11542 3934 -544
11565 3938 -540
11570 3935 -535
11586 3936 -531
11602 3937 -526
11626 3940 -522
11631 3937 -517
11657 3941 -513
11664 3938 -508.00003
11687 3940 -503.00003
11703 3940 -499
11715 3938 -494
11735 3939 -490
11738 3934 -484
11775 3940 -480
11783 3936 -475
11812 3939 -471
11823 3936 -466
11847 3937 -461
11846 3930 -456
11877 3933 -451
11900 3933 -446
11899 3925 -441
11928 3926 -436
11927 3918 -431
11954 3919 -426
11971 3916 -421
11993 3914 -416
12005 3909 -411
12033 3910 -406
12045 3904 -401
12047 3896 -395
12067 3893 -390
12091 3891 -385
12105 3886 -380
12144 3888 -375
12156 3882 -370
12177 3878 -365
12198 3874 -360
12230 3873 -354
12253 3870 -350
12269 3864 -344
12264 3851 -338
12223 3827 -332
12220 3814 -326
12241 3809 -320
12227 3793 -314
12217 3778 -308
12228 3769 -303
12214 3753 -297
12199 3736 -291
12187 3720 -285
12166 3701 -279
12162 3686 -273
12148 3669 -267
12138 3653 -261
12124 3636 -255
12119 3621 -249
12104 3603 -244
12094 3586 -238
12073 3566 -232
12033 3540 -226
12036 3527 -220
12033 3512 -215
12025 3496 -209
12012 3478 -204
11995 3458 -198
11983 3440 -192
11987 3426 -187
11954 3402 -181
11942 3383 -176
11936 3367 -171
11907 3343 -165
11898 3325 -160
11890 3308 -154
11869 3286 -149
11855 3267 -144
11842 3247 -138
11826 3227 -133
11809 3206 -128
11803 3188 -123
11780 3166 -118
11766 3145 -112
11760 3127 -108
11752 3108 -103
11739 3088 -98
11712 3064 -93
11701 3045 -88
11690 3025 -83
11673 3003 -79
11654 2981 -74
11648 2962 -69
11641 2943 -65
11617 2920 -60
11604 2899 -56
11584 2876 -51
11564 2854 -47
11557 2834 -42
11539 2812 -38
11517 2788 -34
11522 2772 -30
11490 2746 -25
11474 2723 -21
11482 2707 -17
11447 2680 -13
11440 2661 -9
11410 2635 -5
11420 2619 -1
11390 2593 1
11387 2573 5
11354 2547 9
11336 2524 13
11324 2502 16
11315 2481 20
11284 2455 23
11289 2436 27
11263 2412 30
11256 2391 33
11244 2369 37
11229 2346 40
11197 2320 43
11191 2299 46
11177 2276 49
11153 2252 52
11132 2228 55
11125 2206 58
11118 2185 61
11102 2162 64
11137 2148 67
11084 2118 69
11073 2096 71
11086 2078 74
11085 2057 77
11085 2037 79
11107 2020.9999 82
11142 2006 84
11235 2002.0001 87
11303 1993 90
11342 1979 93
11386 1965 95
11392 1944 98
11455 1934 100
11463 1913 102
11469 1893 104
11557 1885 107
11603 1870 109
11619 1851 111
11633 1830 113
11638 1808 115
11648 1787 117
11659 1766 118
11665 1744 120
11656 1720 121
11679 1700 123
11675 1676 124
11684 1655 125
11688 1633 126
11684 1609 127.00001
11689 1586 129
11683 1563 129
11683 1539 130
11691 1517 131
11695 1494 132
11680 1468 132
11695 1447 133
11689 1423 134
11690 1399 134
11696 1376 134
11692 1351 135
11689 1328 135
11698 1305 135
11684 1279 135
11682 1255 135
11683 1231 135
11687 1208 135
11674 1182 135
11677 1159 134
11680 1135 134
11668 1109 133
11678 1086 133
11657 1060 132
11663 1036 131
11657 1011.9999 130
11648 988 130
11657 964 129
11644 938 127.00001
11635 913 126
11644 889 125
11647 865 124
11638 840 123
11624 815 121
11623 791 120
11614 766 118
11618 742 116
11597 716 114
11592 691 113
11599 667 111
11595 643 109
11600 618 107
11574 592 104
11565 567 102
11551 543 100
11551 518 97
11551 494 95
11535 468 92
11519 443 90
11455 417 86
11470 393 84
11460 368 81
11457 344 78
11444 319 75
11450 295 72
11421 270 69
11413 246 65
11386 221 62
11383 197 59
11372 173 55
11365 149 52
11348 125 48
11329 101 44
11328 77 41
11306 53 37
11295 29 33
11280 5 29
11256 -17 25
11247 -41 21
11229 -65 17
11218 -88 13
11201 -111 8
11197 -135 4
11166 -158 0
11156 -182 -4
11152 -205 -9
11127 -228 -13
11098 -250 -18
11091 -274 -23
11016 -295 -27
11010 -317 -32
10972 -339 -37
10907 -360 -42
10860 -381 -46
10810 -402 -51
10775 -423 -56
10714 -443 -61
10610 -460 -66
10540 -479 -70
10461 -497 -75
10429 -517 -80
10417 -538 -86
10418 -560 -91
10417 -581 -96
10412 -602 -102
10404 -622 -107
10417 -645 -113
10406 -665 -119
10405 -686 -124
10397 -707 -130
10385 -727 -136
10366 -747 -142
10339 -766 -147
10313 -784 -153
10300 -804 -159
10292 -824 -165
10273 -843 -171
10259 -863 -177
10240 -881 -183
10227 -900 -189
10225 -920 -195
10192 -938 -201
10196 -958 -207
10179 -977 -214
10185 -997 -220
10191 -1016.9999 -227
10189 -1037 -234
10201 -1058 -241
10204 -1078 -248
10189 -1096 -254.00002
10207 -1118 -261
10201 -1137 -268
10220 -1159 -276
10213 -1177 -282
10216 -1197 -289
10222 -1217 -297
10220 -1235 -304
10243 -1258 -312
10240 -1277 -319
10236 -1296 -326
10237 -1315 -334
10245 -1335 -341
10246 -1353 -349
10257 -1374 -357
10259 -1393 -364
10255 -1411 -372
10266 -1432 -380
10264 -1450 -387
10269 -1470 -395
10271 -1488 -403
10275 -1507 -411
10280 -1527 -419
10282 -1545 -427
10289 -1564 -436
10297 -1584 -444
10298 -1602 -452
10297 -1620 -460
10311 -1640 -469
10308 -1658 -477
10305 -1675 -485
10315 -1694 -493
10313 -1712 -501.99997
10338 -1734 -510.99997
10357 -1754 -520
10376 -1775 -530
10394 -1796 -539
10405 -1815 -548
10432 -1837 -558
10457 -1859 -568
10465 -1877 -576
10497 -1900 -587
10501 -1918 -596
10536 -1942 -607
10546 -1961 -616
10571 -1982 -626
10594 -2003 -636
10613 -2023.9999 -647
7013 -1348 -433
7028 -1362 -440
7013 -1370 -445
6996 -1378 -449
6985 -1386 -455
6943 -1389 -458
6939 -1398 -463
6930 -1407 -469
6904 -1412 -473
6897 -1421 -478
6883 -1428 -483
6868 -1435 -488
6874 -1447 -494
6874 -1457 -500
6862 -1464 -505
6861 -1474 -510.99997
6851 -1481 -516
6853 -1491 -522
6880 -1507 -530
6880 -1517 -536
6877 -1526 -542
6857 -1531 -546
6890 -1547 -554
6884 -1555 -560
10320 -2346 -848
10304 -2356 -856
10279 -2364 -863
10268 -2375 -871
10243 -2383 -877
10217 -2390 -884
10202 -2400 -891
10157 -2402 -896
10129 -2408 -902
10102 -2414 -909
10087 -2423 -916
10059 -2429 -922
10039 -2436 -929
10017 -2443 -935
9984 -2447 -940
9990 -2460 -949
9967 -2466 -956
9950 -2474 -963
9937 -2482 -970
9911 -2486 -975
9901 -2495 -983
9864 -2497 -988
9835 -2501 -993
9831 -2510 -1001.0001
9796 -2512 -1005
9781 -2519 -1011.9999
9754 -2522 -1016.9999
9738 -2528 -1024
9719 -2533 -1030
9690 -2536 -1035
9681 -2543 -1042
9657 -2547 -1047
9640 -2552 -1053
9634 -2559 -1060
9600 -2560 -1064
9602 -2570 -1072
9572 -2571 -1077
9545 -2572 -1082
9524 -2575 -1087
9509 -2580 -1093
9484 -2582 -1098
9490 -2592 -1106
9449 -2589 -1109
9443 -2596 -1116
9408 -2594 -1119
9362 -2589 -1121
9360 -2596 -1128
9334 -2597 -1132
9338 -2605 -1139
9346 -2615 -1148
9336 -2619 -1154
9192 -2586 -1143
9129 -2575 -1142
9079 -2568 -1143
8820 -2501 -1117
8692 -2471 -1107
8676 -2472 -1111
0 0 0
8588 -2459 -1113
8559 -2456 -1115
8569 -2465 -1123
8550 -2465 -1127
8556 -2472 -1133
8546 -2474 -1138
8533 -2476 -1143
8533 -2480 -1149
8524 -2483 -1153
8524 -2487 -1160
8515 -2490 -1164
8528 -2498 -1172
8511 -2497 -1175
8498 -2498 -1179
8501 -2503 -1185
8471 -2498 -1187
8425 -2489 -1186
8457 -2502 -1196
8457 -2506 -1202
8443 -2505 -1205
8450 -2511 -1212
8431 -2509 -1214
8421 -2509 -1218
8419 -2512 -1223
8416 -2514 -1228
8417 -2517 -1233
8412 -2518 -1237
8410 -2521 -1242
8410 -2523 -1247
8412 -2527 -1253
8414 -2529 -1258
8416 -2533 -1263
8397 -2529 -1265
8392 -2530 -1269
8397 -2533 -1275
8368 -2526 -1275
8370 -2529 -1280
8394 -2538 -1288
8402 -2542 -1294
8408 -2545 -1300
8402 -2545 -1303
8399 -2545 -1307
8400 -2546 -1312
8412 -2551 -1318
8409 -2551 -1322
8429 -2558 -1329
8429 -2559 -1333
8435 -2561 -1338
8446 -2565 -1344
8456 -2568 -1350
8459 -2569 -1354
8453 -2568 -1357
8464 -2571 -1362
8499 -2582 -1372
8496 -2581 -1375
8518 -2587 -1382
8518 -2587 -1386
8524 -2588 -1390
8527 -2588 -1394
8497 -2578 -1393
8496 -2577 -1396
8481 -2572 -1397
8477 -2569 -1400
8464 -2564 -1401
8458 -2561 -1403
8442 -2555 -1403
8432 -2550 -1405
8425 -2547 -1406
8417 -2543 -1408
8407 -2538 -1409
8418 -2539 -1414
8409 -2535 -1415
8414 -2534 -1418
8408 -2530 -1420
8405 -2527 -1422
8387 -2519 -1421
8390 -2517 -1424
8398 -2517 -1428
8391 -2512 -1429
8381 -2506 -1429
8378 -2503 -1431
8375 -2499 -1432
8369 -2494 -1433
8362 -2488 -1434
8368 -2487 -1437
8357 -2480 -1437
8352 -2475 -1438
8341 -2468 -1437
8346 -2466 -1440
8341 -2460 -1441
8340 -2456 -1442
8330 -2449 -1441
8325 -2444 -1442
8326 -2440 -1443
8321 -2434 -1444
8322 -2430 -1445
8325 -2426 -1447
8322 -2420 -1447
8320 -2415 -1448
8299 -2404 -1445
8289 -2396 -1444
8303 -2395 -1447
8316 -2394 -1450
8309 -2386 -1450
8320 -2385 -1452
8321 -2379 -1453
8318 -2373 -1453
8312 -2366 -1452
8310 -2359 -1452
8318 -2356 -1453
8313 -2348 -1452
8301 -2339 -1450
8305 -2334 -1451
8313 -2330 -1452
8308 -2322 -1452
8310 -2317 -1452
8306 -2309 -1451
8303 -2302 -1450
8308 -2296 -1450
8309 -2290 -1450
8311 -2283 -1450
8329 -2281 -1452
8316 -2271 -1449
8321 -2265 -1449
8323 -2258 -1449
8325 -2252 -1448
8332 -2246 -1448
8334 -2239 -1448
8341 -2234 -1448
8339 -2225 -1446
8349 -2220 -1447
8346 -2212 -1445
8351 -2205 -1444
8352 -2198 -1443
8344 -2187 -1440
8355 -2182 -1440
8344 -2171 -1437
8357 -2166 -1437
8363 -2159 -1436
8378 -2154 -1437
8372 -2144 -1434
8386 -2139 -1434
8372 -2127 -1430
8378 -2120 -1429
8407 -2118 -1431
8412 -2110 -1430
8411 -2101 -1427
8402 -2090 -1423
8393 -2078 -1419
8404 -2072 -1418
8421 -2066 -1418
8424 -2057 -1416
8431 -2050 -1415
8448 -2043.9999 -1414
8452 -2036 -1412
8459 -2027 -1410
8473 -2020.9999 -1409
8466 -2009.0001 -1405
8471 -2000 -1402
8488 -1994 -1402
8505 -1988 -1401
8514 -1980 -1399
8507 -1968 -1394
8522 -1961 -1393
8531 -1952 -1391
8550 -1946 -1390
8556 -1936 -1387
8563 -1927 -1384
8566 -1917 -1380
8581 -1909 -1378
8598 -1902 -1377
8600 -1891 -1373
8618 -1884 -1371
8630 -1876 -1369
8625 -1863 -1363
8645 -1856 -1362
8656 -1847 -1359
8677 -1840 -1357
8692 -1832 -1355
8706 -1823 -1352
8716 -1813 -1348
8713 -1800 -1342
8707 -1787 -1336
8730 -1780 -1334
8722 -1766 -1328
8740 -1758 -1325
8773 -1752 -1324
8786 -1743 -1321
8794 -1732 -1316
8818 -1724 -1314
8828 -1714 -1309
8844 -1704 -1306
8849 -1693 -1300
8860 -1682 -1296
8885 -1674 -1293
8893 -1663 -1288
8914 -1654 -1285
8926 -1644 -1280
8955 -1636 -1277
8957 -1623 -1271
8966 -1612 -1265
8984 -1602 -1261
9005 -1592 -1257
9013 -1580 -1251
9040 -1572 -1248
9036 -1557 -1240
9049 -1546 -1234
9066 -1536 -1229
9091 -1526 -1225
9121 -1518 -1221
9144 -1508 -1217
9154 -1495 -1210
9194 -1488 -1207
9206 -1476 -1201
9208 -1462 -1193
9237 -1453 -1189
9260 -1442 -1183
9278 -1431 -1177
9307 -1421 -1172
9322 -1409 -1166
9348 -1398 -1160
9354 -1385 -1152
9370 -1372 -1145
9404 -1363 -1140
9420 -1350 -1133
9448 -1340 -1127
9465 -1328 -1120
9503 -1318 -1115
9522 -1306 -1108
9537 -1293 -1100
9548 -1279 -1091
9561 -1266 -1083
9598 -1256 -1077
9641 -1246 -1072
9664 -1234 -1064
9695 -1223 -1058
9711 -1210 -1049
9752 -1199 -1043
9767 -1185 -1034
9806 -1175 -1027
9838 -1163 -1020
9850 -1149 -1010
9882 -1136 -1002
9917 -1125 -995
9938 -1112 -985
9972 -1100 -978
9994 -1086 -968
10023 -1073 -959
10059 -1061 -951
10087 -1048 -942
10114 -1035 -933
10148 -1023 -924
10176 -1008.9999 -914
10184 -994 -903
10211 -980 -893
6843 -646 -590
6816 -632 -579
6828 -623 -572
6819 -611 -562
6829 -601 -555
6818 -590 -545
6813 -578 -536
6794 -566 -526
6837 -559 -521
6865 -550 -514
6861 -539 -505
6876 -529 -497
6911 -521 -491
6906 -510 -481
6962 -503.00003 -476
6981 -494 -468
10489 -725 -689
10490 -709 -675
10488 -692 -661
10506 -677 -648
10501 -660 -633
10506 -644 -619
10520 -629 -605
10521 -613 -591
10530 -597 -577
10534 -581 -562
10524 -563 -547
10532 -548 -532
10528 -531 -517
10520 -514 -501.99997
10506 -497 -486
10493 -481 -470
10506 -465 -456
10492 -448 -440
10484 -432 -424
10468 -416 -408
10476 -400 -393
10474 -384 -378
10465 -368 -362
10454 -352 -346
10442 -336 -330
10442 -320 -314
10431 -304 -298
10428 -289 -282
10427 -273 -267
10417 -257 -250
10421 -242 -234
10410 -226 -218
10404 -210 -202
10401 -195 -186
10397 -180 -169
10393 -164 -153
10372 -149 -136
10378 -134 -120
10396 -119 -104
10499 -105 -88
10732 -92 -73
10897 -77 -57
11065 -63 -40
11100 -47 -22
11149 -31 -4
11239 -16 13
11296 0 31
11370 15 49
11441 31 68
11501 47 88
11595 64 107
11622 80 127.00001
11708 97 147
11781 114 168
11783 130 187
11787 146 206
11776 162 226
11775 177 245
11776 194 265
11772 209 284
11782 225 304
11806 241 324
11854 257 346
11874 273 366
14614 356 476
14659 376 501.99997
14792 398 531
14883 420 560
14986 442 589
15123 465 620
15227 488 650
15295 509 679
15345 530 708
15430 553 738
15597 578 773
15707 602 806
15815 625 839
15912 649 871
16024 673 905
16171 699 942
16295 724 977
16394 747 1011.0001
16500 772 1046
16618 797 1082
16750 823 1120
16868 849 1158
16987 874 1195
17097 899 1232
17292 929 1277
17474 959 1321
17479 979 1352
17492 1000 1384
17500 1020 1414
17496 1039 1445
17482 1058 1475
17498 1078 1506
17473 1095 1535
17450 1113 1564
17455 1132 1594
17394 1146 1619
17382 1164 1649
17363 1181 1678
17361 1199 1708
17370 1218 1739
17371 1236 1770
17360 1253 1799
17353 1270 1829
17354 1288 1860
17346 1305 1890
17342 1322 1920
17343 1339 1950
17304 1353 1977
17335 1372 2010.9999
17373 1392 2045.0001
17501 1419 2091
22499 1845 2727
22530 1869 2771
22518 1889 2809
22529 1911 2850
22514 1930 2887
22513 1950 2926
22509 1970 2964
22499 1989 3002
22498 2009.0001 3042
22490 2028.0001 3080
22483 2046.9999 3118
22485 2067 3157
22474 2085 3194
22482 2104 3234
22495 2125 3275
22662 2159 3338
23100 2220 3443
24302 2355 3664
24399 2384 3721
24408 2405 3764
24396 2423 3804
24395 2442 3846
24389 2460 3885
24377 2477 3925
28111 2878 4574
28093 2897 4619
28108 2919 4669
28101 2939 4715
28096 2960 4762
28085 2978 4807
28061 2995 4850
28069 3016 4897
28064 3036 4943
28111 3059 4998
28252 3093 5070
28559 3146 5172
29100 3225 5318
29132 3248 5372
28830 3233 5363
28469 3210 5342
28384 3218 5373
28337 3231 5410
28296 3243 5448
28291 3260 5493
28280 3275 5536
28271 3291 5579
28282 3309 5627
28262 3322 5668
28246 3336 5710
28204 3347 5746
28174 3359 5784
28164 3373 5826
28183 3390 5874
28161 3402 5913
28174 3418 5959
28177 3433 6003
28221 3452 6056
46187 5673 9981
46014 5674 10014
45692 5656 10014
45567 5662 10055
45626 5691 10138
46069 5767 10305
46293 5816 10426
46684 5885 10582
46897 5932 10700
46500 5902 10677
47983 6110 11087
48050 6138 11173
48044 6156 11241
48013 6171 11303
48004 6189 11368
47969 6202 11428
47958 6218 11494
47937 6232 11556
47934 6249 11623
28182 3683 6872
28133 3686 6900
28099 3691 6930
28156 3707 6983
47840 6315 11928
47808 6324 11986
47775 6335 12041
47757 6346 12100
47750 6359 12161
47754 6372 12225
47719 6380 12278
47694 6390 12333
47678 6399 12390
47675 6411 12449
47647 6417 12502
47631 6426 12558
47605 6433 12609
47570 6439 12660
47571 6449 12719
47558 6456 12772
47537 6464 12824
47543 6473 12883
47505 6475 12928
47485 6480 12979
47463 6485 13028
47439 6489 13077
47428 6496 13128
47439 6504 13186
47412 6506 13231
47390 6510 13277
47379 6514 13327
47359 6516 13373
47361 6520 13424
47337 6521 13468
47320 6523 13514
47312 6527 13561
47295 6528 13606
47269 6526 13647
47293 6533 13701
47245 6529 13735
47264 6534 13788
47224 6530 13822
47227 6532 13870
47192 6529 13904
47198 6530 13951
47181 6528 13990
47163 6526 14028
47146 6524 14066
47141 6522 14106
47145 6524 14149
47118 6519 14183
47119 6516 14225
47111 6514 14262
47104 6510 14301
47071 6504 14329
47064 6499 14366
47071 6497 14407
47054 6493 14439
47042 6487 14472
47031 6482 14504
47010 6475 14533
47016 6471 14570
47016 6466 14605
47002 6459 14635
46974 6450 14659
46957 6442 14686
46970 6436 14722
46962 6430 14751
46950 6421 14778
46967 6417 14812
46938 6405 14834
46938 6398 14863
46926 6390 14886
46897 6376 14905
46910 6369 14937
46895 6359 14958
46894 6350 14984
46895 6341 15010
46879 6330 15029
46863 6317 15049
46884 6309 15079
46868 6296 15097
46877 6288 15121
46861 6273 15139
46855 6262 15157
46855 6250 15178
46819 6235 15185
46849 6226 15214
46848 6214 15232
46828 6198 15244
46824 6184 15260
46813 6169 15273
46814 6157 15288
46793 6140 15297
46792 6126 15311
46802 6114 15328
46811 6101 15345
46826 6087 15362
46797 6068 15365
46796 6053 15376
46793 6038 15386
46795 6021 15397
46774 6003 15399
46773 5986 15408
46778 5970 15418
46801 5956 15433
46790 5937 15437
46785 5919 15441
46773 5901 15442
46776 5884 15449
46790 5867 15458
46801 5850 15465
46772 5828 15459
46779 5811 15463
46767 5790 15461
46789 5772 15470
46802 5755 15474
46797 5735 15473
46797 5715 15472
46803 5696 15472
46785 5673 15464
46809 5656 15470
46811 5636 15466
46814 5614 15464
46803 5592 15455
46814 5572 15453
46799 5548 15443
46823 5529 15444
46815 5506 15434
46826 5484 15430
46831 5464 15422
46828 5440 15412
46832 5418 15403
46860 5398 15402
46845 5372 15386
46846 5349 15374
46836 5325 15358
46860 5303 15353
46879 5281 15345
46869 5256 15328
46878 5232 15316
46880 5207 15301
46873 5183 15282
46894 5160 15272
46878 5134 15249
46908 5112 15240
46917 5087 15224
46921 5061 15206
46928 5034 15188
46932 5010 15168
46927 4983 15145
46939 4959 15126
46948 4932 15108
46966 4907 15090
46976 4882 15068
46981 4855 15045
46991 4830 15022
47006 4804 15001
46988 4773 14970
47037 4751 14957
47020 4722 14924
47054 4697 14906
47044 4669 14873
47052 4640 14846
47061 4613 14819
47053 4584 14785
47078 4557 14760
47096 4530 14734
47106 4502 14704
47126 4476 14677
47149 4449 14650
47144 4420 14613
47154 4390 14582
47167 4363 14550
47175 4334 14516
47199 4306 14486
47203 4276 14449
47206 4248 14411
47226 4219 14378
47238 4190 14342
47247 4160 14304
47251 4130 14264
47286 4104 14234
47291 4072 14194
47287 4043.0002 14150
47318 4014 14116
47354 3986 14082
47365 3956 14041
47354 3925 13992
47371 3895 13951
47381 3865 13908
47412 3836 13870
47426 3806 13826
47452 3776 13785
47443 3744 13734
47454 3714 13688
47472 3683 13642
47504 3655 13601
47513 3625 13553
47509 3593 13500
47537 3563 13455
47564 3533 13410
47568 3501 13357
47582 3472 13307
47623 3444 13264
47607 3411 13205
47656 3382 13162
47664 3350 13108
47682 3319 13056
47695 3288 13001
47736 3260 12955
47752 3229 12901
47764 3197 12844
47787 3167 12790
47821 3137 12739
27950 1814 7410
27938 1795 7370
27970 1779 7343
27962 1759 7304
27978 1741 7271
27992 1723 7238
28009 1706 7205
27990 1686 7162
47981 2858 12211
47994 2826 12149
48009 2795 12086
48044 2766 12028
48057 2735 11964
48079 2704 11901
48100 2674 11838
48128 2643 11775
48144 2612 11709
48149 2581 11640
48157 2551 11572
48191 2521 11509
48236 2493 11449
48251 2462 11380
28363 1428 6646
28348 1409 6600
28384 1392 6565
45850 2220 10534
45862 2192 10464
45871 2162 10395
45882 2134 10325
45901 2105 10258
45879 2075 10180
45939 2048 10120
45971 2022.0001 10054
45990 1993 9983
46010 1966 9913
28529 1201 6100
28504 1182 6048
28505 1164 6001
28541 1149 5962
36674 1454 7600
36671 1431 7537
36666 1409 7475
36653 1386 7410
36646 1363 7345
36653 1342 7285
23253 837 4581
23258 824 4543
23248 810 4500
23273 798 4465
23323 786 4433
23340 773 4396
23364 760 4359
28803 921 5323
28815 905 5274
28818 889 5223
28803 872 5168
28769 856 5111
28829 842 5070
28844 827 5021
28868 811 4971
28874 797 4920
28914 782 4872
28917 767 4820
28936 752 4769
28905 736 4710
27013 674 4352
26946 658 4290
26851 642 4224
26823 628 4169
26799 615 4115
26671 598 4045
26485 581 3966
25713 552 3801
25568 536 3731
25507 523 3673
19977 400 2838
19972 391 2799
19973 382 2760
19984 373 2722
19991 364 2684
19955 354 2640
19771 342 2576
18179 307 2333
18323 301 2315
18160 291 2258
18152 283 2221
18146 276 2185
18141 268 2148
18151 261 2113
18124 254.00002 2073
18137 247 2038.0001
18119 239 1999
18135 233 1965
18116 226 1926
18114 219 1889
18101 213 1851
18105 206 1814
18062 200 1774
18037 193 1734
18078 187 1700
18070 181 1663
18073 175 1626
18059 170 1588
18043 164 1550
18002 158 1508
17761 151 1451
17589 144 1400
17410 137 1350
17267 131 1303
17117 126 1257
16973 120 1211
16745 114 1160
16646 109 1118
16539 104 1076
16305 99 1027
16238.001 95 989
15337 86 901
15004 81 851
14837 76 810
14767 73 775
14750 70 743
14780 67 713
14781 64 682
14747 62 649
14756 59 618
14807 57 589
14792 54 557
14684 51 522
14563 49 487
11872 38 371
11784 36 344
11781 35 318
11763 33 292
11781 32 268
11781 31 243
11792 29 218
11792 28 193
11753 27 167
11617 26 139
11554 25 114
11458 24 89
11368 23 64
11285 22 39
11203 21 15
11123 21 -8
11042 20 -31
10870 20 -54
10629 19 -76
10407 19 -96
10375 18 -118
10372 18 -140
10377 19 -162
10384 19 -184
10394 19 -206
10397 19 -229
10393 20 -250
10419 20 -273
10415 21 -296
10416 21 -317
10427 22 -340
10437 23 -363
10445 24 -385
10443 24 -408
10470 25 -431
10470 26 -454
10473 28 -476
10470 29 -498
10476 30 -521
10489 31 -543
10496 33 -566
10500 34 -588
10508 36 -611
10518 37 -634
10561 39 -659
10527 41 -679
10532 43 -701
6971 29 -478
6922 30 -490
6873 31 -501
6840 33 -512
6806 34 -524
6789 35 -537
6785 37 -550
6796 38 -565
6789 40 -579
6756 41 -590
10228 65 -914
10176 67 -931
10121 69 -946
10053 72 -961
10025 74 -978
9980 76 -994
9928 79 -1008.9999
9871 81 -1024
9817 84 -1038
9772 86 -1053
9735 89 -1069
9683 91 -1083
9641 94 -1097
9586 97 -1110
9536 99 -1124
9502 102 -1139
9452 105 -1152
9413 107 -1166
9363 110 -1178
9319 113 -1191
9288 116 -1205
9233 119 -1217
9203 122 -1231
9164 125 -1243
9102 127.00001 -1252
9057 130 -1264
9016 133 -1275
8983 136 -1288
8953 139 -1301
8800 140 -1296
7240 119 -1080
7215 121 -1090
7203 124 -1102
7143 126 -1106
7106 128 -1113
7107 132 -1127
7101 135 -1140
7111 138 -1154
7091 141 -1164
7061 143 -1172
6997 145 -1175
6912 147 -1173
6875 149 -1179
6862 152 -1190
6829 155 -1196
6790 157 -1202
6790 160 -1214
6777 163 -1224
6779 167 -1236
6764 170 -1245
6737 173 -1252
6728 176 -1262
6730 179 -1275
6742 183 -1289
6737 186 -1300
6735 190 -1311
6740 194 -1323
6749 197 -1337
6755 201 -1350
6757 205 -1361
6756 209 -1373
6758 212 -1385
6764 216 -1397
6766 220 -1409
6771 224 -1421
6783 228 -1434
6773 231 -1444
6781 235 -1456
6781 239 -1467
6785 243 -1479
6793 248 -1492
6802 252 -1504
6803 256 -1515
6795 259 -1524
6806 264 -1537
6811 268 -1549
6814 272 -1560
6811 276 -1570
6820 280 -1582
6822 284 -1593
6816 288 -1602
6829 293 -1615
6831 297 -1626
6830 301 -1635
6842 305 -1648
6840 309 -1658
6837 314 -1667
6848 318 -1679
6845 322 -1688
6849 326 -1699
6839 330 -1706
6852 335 -1719
6862 340 -1731
6861 344 -1740
6851 348 -1746
6827 351 -1749
6799 353 -1751
6757 355 -1749
6726 358 -1750
6706 361 -1754
6712 365 -1764
6727 370 -1776
6724 374 -1784
6734 379 -1795
6730 383 -1802
6727 387 -1810
6722 391 -1816
6717 395 -1823
6674 396 -1819
6658 400 -1823
6630 402 -1823
6594 404 -1821
6572 407 -1822
6529 408 -1818
6496 410 -1816
6493 414 -1822
6446 415 -1816
6433 418 -1819
6394 420 -1815
6373 422 -1816
6336 424 -1812
6316 426 -1813
6305 430 -1816
6299 433 -1821
6295 437 -1826
6286 440 -1829
6279 444 -1834
6285 447 -1841
6272 451 -1844
6264 454 -1847
6271 458 -1855
6255 461 -1856
6244 464 -1858
6252 468 -1866
6241 471 -1868
6240 475 -1873
6231 478 -1876
6226 482 -1880
6227 485 -1885
6228 489 -1891
6214 492 -1891
6213 495 -1896
6206 498 -1898
6211 503.00003 -1905
6200 505.99997 -1906
6196 509 -1909
6193 512 -1912
6194 516 -1917
6185 519 -1919
6177 522 -1920
6179 525 -1925
6168 528 -1926
6164 531 -1928
6173 535 -1935
6165 538 -1936
6157 541 -1937
6152 544 -1939
6145 547 -1941
6153 551 -1947
6141 554 -1946
6136 556 -1948
6132 560 -1949
6125 562 -1950
6143 567 -1959
6126 569 -1957
6115 571 -1956
6116 575 -1959
6109 577 -1959
6103 580 -1960
6103 583 -1962
6104 586 -1965
6099 589 -1966
6100 592 -1968
6096 595 -1969
6087 597 -1968
6085 600 -1969
6087 603 -1972
6080 606 -1971
6080 609 -1973
6082 612 -1975
6077 615 -1975
6072 617 -1975
6068 620 -1975
6060 622 -1973
6063 625 -1976
6070 628 -1979
6059 630 -1977
6057 633 -1977
6047 634 -1974
6054 638 -1977
6043 639 -1974
6034 641 -1972
6040 644 -1975
6040 647 -1975
6025 648 -1970
6031 651 -1972
6036 654 -1974
6034 657 -1974
6032 659 -1973
6032 661 -1973
6034 664 -1973
6028 666 -1971
6036 669 -1973
6025 670 -1969
6039 674 -1974
6030 675 -1970
6034 678 -1970
6026 680 -1967
6035 683 -1969
6042 686 -1971
6042 688 -1970
6036 689 -1966
6026 691 -1962
6038 694 -1965
6036 696 -1963
6020 696 -1956
6037 700 -1960
6041 702 -1960
6032 703 -1955
6033 705 -1954
6037 707 -1953
6039 710 -1952
6033 710 -1948
6036 713 -1947
6039 715 -1946
6047 718 -1946
6033 717 -1939
6043 720 -1940
6039 721 -1936
6037 723 -1933
6039 725 -1931
6037 726 -1927
6045 728 -1927
6046 730 -1924
6038 730 -1919
6035 731 -1915
6040 733 -1913
6041 735 -1911
6046 737 -1909
6040 737 -1903
6031 737 -1897
6042 740 -1897
6036 740 -1892
6041 742 -1890
6040 743 -1886
6046 745 -1883
6046 746 -1880
6042 746 -1874
6043 747 -1871
6041 748 -1866
6044 749 -1862
6042 750 -1857
6044 751 -1854
6047 752 -1850
6049 753 -1846
6052 754 -1842
6050 754 -1837
6044 754 -1831
6050 756 -1828
6045 755 -1821
6052 757 -1818
6051 757 -1813
6055 758 -1809
6052 758 -1803
6055 759 -1798
6056 759 -1793
6055 759 -1787
6057 760 -1783
6057 760 -1777
6056 760 -1771
6064 761 -1768
6067 761 -1763
6068 762 -1757
6060 761 -1749
6066 761 -1745
6063 761 -1738
6067 761 -1733
6071 762 -1727
6069 761 -1721
6074 761 -1716
6067 760 -1707
6063 760 -1700
6072 760 -1696
6076 760 -1690
6073 760 -1682
6073 759 -1676
6075 759 -1669
6082 759 -1664
6073 757 -1655
6085 758 -1651
6081 757 -1643
6072 755 -1633
6076 755 -1627
6096 756 -1625
6080 753 -1614
6092 754 -1610
6090 753 -1602
6111 755 -1599
6138 757 -1599
6146 757 -1593
6160 757 -1589
6179 759 -1586
6192 759 -1582
6195 758 -1574
6225 760 -1574
6280 766 -1580
6340 772 -1586
6387 776 -1590
6442 781 -1595
6512 788 -1603
6580 794 -1611
6605 795 -1608
6613 795 -1601
6636 796 -1597
6647 795 -1591
6654 794 -1583
6684 795 -1581
6697 795 -1574
6721 796 -1570
6739 796 -1565
6749 795 -1558
6780 796 -1555
6791 795 -1548
6798 793 -1540
6830 795 -1537
6857 795 -1533
6876 795 -1527
6900 795 -1522
6913 794 -1514
6928 793 -1507
6923 789 -1495
6876 781 -1475
6832 773 -1455
6804 767 -1438
6776 761 -1422
6738 754 -1404
6733 750 -1392
6720 745 -1379
6722 743 -1369
6729 740 -1360
6723 736 -1348
6715 732 -1335
6711 728 -1324
6707 725 -1312
6711 722 -1302
6699 717 -1289
6701 714 -1279
6713 711 -1270
6725 709 -1261
6756 708 -1256
6773 706 -1248
6801 705 -1242
6821 704 -1235
6853 703 -1229
6880 702 -1223
6907 700 -1216
6928 698 -1208
6942 696 -1199
6982 695 -1194
7004 693 -1186
7021 690 -1177
7059 689 -1171
7070 686 -1161
7111 685 -1156
7134 683 -1147
7145 679 -1137
7182 678 -1131
7214 676 -1123
7243 673 -1115
7287 672 -1110
7423 679 -1117
7534 684 -1121
7644 689 -1124
7754 693 -1127
7777 689 -1116
7803 685 -1107
6975 607 -977
6944 599 -961
6959 595 -950
6885 584 -928
6887 578 -917
6890 573 -905
6883 567 -892
6870 560 -878
6878 555 -867
6865 549 -853
6863 543 -841
6854 536 -827
6859 531 -816
6856 525 -803
6853 518 -791
6842 510.99997 -777
6845 505.99997 -765
6835 499 -752
6847 493 -741
6831 486 -727
6830 480 -715
6824 473 -702
6821 467 -690
6822 460 -677
6806 453 -664
6807 446 -651
6809 440 -640
6809 434 -628
6807 427 -615
6799 420 -602
6781 412 -589
6774 405 -576
6772 398 -564
6770 391 -551
6781 385 -540
6811 379 -530
6846 374 -521
6879 369 -510.99997
6910 363 -501
6948 358 -491
10505 530 -724
10497 519 -705
10503 508.00003 -687
10486 496 -667
10495 485 -649
10490 473 -630
10485 461 -611
10471 449 -592
10478 437 -573
10462 425 -554
10471 414 -536
10451 401 -516
10451 389 -498
10447 377 -479
10441 364 -460
10427 352 -442
10427 340 -423
10432 327 -405
10418 315 -386
10411 302 -367
10404 289 -349
10400 277 -331
10404 264 -313
10399 252 -295
10391 239 -276
10394 226 -258
10377 213 -240
10376 200 -222
10380 187 -204
10381 174 -186
10377 161 -168
10368 148 -150
10364 135 -133
10380 121 -115
10439 109 -98
10710 98 -82
10876 85 -65
11035 72 -47
11105 58 -28
11135 43 -10
11188 29 8
11290 14 27
11341 0 46
11415 -15 66
11478 -31 85
11571 -46 105
11626 -62 125
11690 -78 145
11774 -95 165
11813 -112 185
11799 -128 205
11794 -144 224
11790 -160 243
11788 -177 262
11788 -193 282
11784 -209 300
11796 -226 320
11849 -244 340
11844 -260 359
11882 -278 379
14441 -358 483
14410 -378 505
14398 -398 528
14419 -420 551
14398 -440 573
14435 -462 597
14463 -483 621
14555 -508.00003 647
14532 -528 669
14541 -550 692
14573 -572 716
14629 -595 740
14616 -616 762
14590 -637 783
14574 -657 804
14564 -679 825
14578 -701 848
14629 -725 873
14643 -747 895
14684 -771 919
14719 -795 943
14768 -819 968
14787 -842 990
14846 -868 1016.0001
14877 -892 1039
14902 -916 1062
14939 -940 1086
14957 -964 1109
15003 -990 1133
15051 -1016.0001 1158
15108 -1043 1184
15175 -1071 1210
15253 -1099 1238
15435 -1136 1273
15741 -1182 1320
15770 -1208 1344
15870 -1240 1375
15911 -1267 1399
15965 -1296 1425
16018.999 -1325 1452
16054.001 -1353 1476
16106.001 -1382 1502
16167 -1412 1529
16201 -1440 1554
18753 -1695 1823
18761 -1725 1848
18763 -1754 1872
18779 -1785 1898
18767 -1812 1920
16246 -1594 1683
16198 -1614 1698
16115 -1630 1709
16100 -1653 1727
16056.999 -1674 1742
16072.001 -1700 1763
15974 -1714 1772
16020 -1744 1796
16011 -1768 1815
16163 -1809 1851
18839 -2138 2180
18818 -2164 2199
18830 -2195 2223
18844 -2225 2246
18855 -2256 2269
18858 -2285 2291
18839 -2311 2310
18868 -2344 2334
18828 -2368 2351
18821 -2396 2371
18809 -2424 2390
18802 -2451 2409
18778 -2477 2427
18803 -2509 2450
18843 -2543 2476
18914 -2582 2505
19294 -2662 2575
20081 -2802 2701
20211 -2851 2740
20230 -2884 2763
20215 -2912 2781
20198 -2940 2799
20134 -2961 2810
20165 -2996 2835
20141 -3023 2851
20084 -3044 2863
20107 -3078 2885
20058 -3101 2898
20089 -3135 2920
22662 -3570 3315
22816 -3628 3360
22960 -3685 3402
23091 -3741 3442
23270 -3804 3490
23406 -3860 3531
23550 -3919 3574
23639 -3967 3607
23860 -4039 3661
23875 -4076.0002 3684
24173 -4163 3751
24451 -4245 3814
24660 -4317 3867
24692 -4358 3892
24771 -4407 3925
24794 -4447 3948
24800 -4483 3969
24793 -4517 3987
24799 -4553 4007
24814 -4590 4028
24862 -4633 4054.9998
24821 -4661 4066
24804 -4692 4081.9998
24791 -4724 4098
24791 -4758 4116
24732 -4780 4124
24730 -4815 4141
26592 -5213 4471
26696 -5270 4507
26733 -5312 4530
26787 -5359 4557
26865 -5410 4588
26939 -5461 4618
26992 -5508 4645
27057 -5557 4673
27109 -5603 4699
27036 -5624 4702
26908 -5632 4697
26826 -5650 4698
26719 -5661 4695
26634 -5677 4695
26594 -5702 4703
26583 -5733 4715
26586 -5768 4730
26574 -5798 4743
26565 -5830 4755
26565 -5863 4769
26544 -5891 4778
26536 -5922 4790
26534 -5953 4803
26515 -5981 4813
26520 -6014 4827
26524 -6047 4840
26512 -6076 4849
26491 -6103 4857
26503 -6137 4871
26488 -6164 4879
26481 -6193 4890
26471 -6221 4899
26476 -6253 4910
26459 -6278 4917
26462 -6309 4928
26467 -6339 4939
26439 -6361 4943
26444 -6392 4954
26454 -6423 4965
26437 -6447 4971
26434 -6474 4979
26438 -6503 4988
26439 -6531 4996
26425 -6555 5001
26436 -6585 5011
26438 -6612 5019
26433 -6638 5025
26433 -6665 5032
26419 -6687 5036
26426 -6715 5044
26429 -6741 5051
26421 -6765 5055
26427 -6792 5062
26429 -6817 5068
26428 -6842 5073
26429 -6866 5079
26425 -6889 5083
26429 -6914 5088
26432 -6939 5093
26428 -6961 5096
26410 -6979 5097
26433 -7008 5105
26529 -7056 5127
26657 -7112 5154
26706 -7148 5167
26711 -7171 5170
26764 -7207 5183
26788 -7235 5190
26831 -7267 5201
26835 -7289 5203
26869 -7319 5211
26895 -7346 5218
26977 -7388 5235
27003 -7415 5241
27008 -7436 5243
27064 -7471 5254
27156 -7515 5272
27170 -7538 5274
27156 -7552 5271
27165 -7573 5272
27173 -7593 5273
27177 -7612 5274
27170 -7627 5271
27158 -7640 5267
27181 -7664 5269
27171 -7677 5265
27191 -7699 5267
30701 -8711 5944
30672 -8720 5936
27126 -7727 5247
27085 -7730 5236
27037 -7730 5223
30652 -8780 5918
30634 -8790 5910
26891 -7730 5184
30621 -8816 5898
26724 -7707 5143
30622 -8845 5888
30667 -8871 5892
30646 -8878 5882
30720 -8913 5890
0 0 0
0 0 0
0 0 0
0 0 0
0 0 0
0 0 0
0 0 0
0 0 0
0 0 0
0 0 0
0 0 0
0 0 0
0 0 0
0 0 0
0 0 0
0 0 0
0 0 0
0 0 0
0 0 0
0 0 0
0 0 0
0 0 0
0 0 0
0 0 0
0 0 0
0 0 0
0 0 0
0 0 0
0 0 0
0 0 0
0 0 0
0 0 0
0 0 0
0 0 0
0 0 0
0 0 0
0 0 0
0 0 0
0 0 0
0 0 0
0 0 0
0 0 0
0 0 0
0 0 0
0 0 0
0 0 0
0 0 0
26307 -7779 4555
26363 -7791 4550
26341 -7779 4532
26340 -7773 4516
26251 -7740 4486
26263 -7738 4473
26208 -7714 4448
26207 -7707 4433
26170 -7689 4410
26235 -7700 4405
26191 -7680 4381
26131 -7654 4355
25974 -7599 4313
25649 -7495 4243
25400 -7413 4185
25243 -7358 4143
25146 -7320 4110
25035 -7278 4074.9998
25003 -7258 4053
24943 -7230 4028
24854 -7193 3996
21692 -6268 3473
21613 -6236 3445
21663 -6240 3438
21676 -6233 3426
21714 -6233 3416
21761 -6236 3408
21742 -6219 3389
21714 -6199 3370
21672 -6175 3348
21661 -6160 3330
21619 -6136 3308
21613 -6121 3291
21614 -6109 3275
21567 -6082 3251
21542 -6061 3231
21539 -6047 3215
21615 -6054 3210
21669 -6055 3201
21671 -6041 3185
21670 -6026 3168
21560 -5980 3135
21350 -5907 3087
21237 -5860 3054
21210 -5838 3034
21201 -5819 3016
21180 -5797 2996
21182 -5782 2979
21188 -5767 2963
21194 -5752 2946
19005 -5142 2626
18918 -5103 2598
18937 -5092 2586
18955 -5081 2572
18887 -5047 2547
18945 -5046 2540
18958 -5033 2525
18995 -5026 2514
18964 -5001 2494
19015 -4997 2485
19014 -4979 2468
19021 -4963 2453
19039 -4950 2439
18755 -4858 2387
18833 -4860 2381
18254 -4693 2292
17826 -4565 2222
17819 -4545 2206
17740 -4506 2180
17698 -4478 2160
17640 -4445 2137
17665 -4433 2125
17679 -4418 2111
17645 -4390 2092
17643 -4371 2076
17635 -4349 2059
17636 -4330 2043
17668 -4318 2030.9999
17677 -4300 2016
17671 -4279 1999
17692 -4263 1986
17689 -4242 1970
17702 -4225 1955
17708 -4205 1940
17746 -4193 1928
17791 -4182 1917
17788 -4160 1901
17786 -4138 1884
17804 -4120 1870
17802 -4097 1853
17781 -4070.0002 1835
17795 -4050.0002 1820
17803 -4030.0002 1805
17811 -4008.9998 1789
17822 -3988 1775
17846 -3970 1760
17860 -3950 1745
17874 -3930 1731
17891 -3909 1716
17884 -3883 1699
17909 -3864 1685
17906 -3840 1668
17928 -3820 1654
17935 -3797 1638
17914 -3767 1619
17948 -3749 1606
17944 -3722 1590
17966 -3701 1575
17982 -3679 1560
17995 -3656 1545
18008 -3632 1530
17992 -3602 1512
17926 -3563 1490
17732 -3498 1457
17595 -3445 1430
17492 -3398 1406
17346 -3344 1378
17321 -3312 1361
17261 -3274 1340
17117 -3221 1313
17105 -3192 1297
17048 -3155 1277
17014 -3122 1259
16926 -3078 1237
16829 -3034 1215
16782 -3000 1197
16723 -2962 1178
16623 -2917 1156
16573 -2882 1138
16538 -2848 1120
16479 -2811 1102
16422 -2775 1083
16385 -2741 1066
16358.999 -2710 1051
16261.999 -2667 1030
16202.999 -2630 1011.9999
16091.999 -2585 991
16077.999 -2555 976
16021.999 -2519 959
15955 -2481 941
15950 -2454 927
15811 -2405 906
15751 -2369 889
15730 -2338 874
15659 -2300 857
15670 -2274 844
15607 -2237 827
15494 -2194 808
15423 -2157 792
15500 -2140 783
15439 -2103 767
15351 -2064 750
15319 -2032.0001 736
15249 -1995 720
15205 -1962 705
15172 -1929 691
15079 -1890 675
15021 -1856 661
14976 -1823 647
14963 -1793 634
14905 -1758 620
14888 -1729 608
14854 -1697 595
14800 -1663 581
14766 -1632 568
14710 -1598 555
14634 -1562 541
14582 -1529 528
11964 -1231 424
11956 -1208 415
12006 -1190 408
11955 -1162 397
11908 -1134 387
11863 -1107 376
11864 -1084 368
11853 -1060 359
11830 -1035 350
11839 -1011.9999 342
11836 -989 333
11832 -965 325
11829 -942 316
11816 -918 308
11827 -895 300
11816 -871 292
11824 -848 284
11825 -825 277
11819 -801 269
11825 -777 261
11825 -754 252.99998
11823 -729 245
11827 -706 238
11836 -682 231
11828 -658 223
11834 -634 216
11832 -610 209
11833 -586 201
11821 -562 194
11813 -537 187
11810 -513 180
11754 -486 172
11711 -460 165
11696 -436 158
11659 -411 151
11643 -386 144
11627 -362 137
11632 -338 131
11609 -313 125
11578 -288 118
11570 -265 112
11528 -240 106
11515 -216 100
11485 -191 94
11455 -167 88
11447 -143 82
11426 -119 76
11399 -95 70
11391 -71 65
11384 -47 60
11360 -23 54
11343 0 49
11323 23 44
11301 46 39
11296 70 34
11282 94 29
11271 117 24
11259 141 20
11255 164 15
11229 187 11
11211 211 6
11192 234 2
11187 257 -1
11167 281 -5
11156 304 -10
11156 328 -14
11147 350 -17
11127 373 -21
11116 396 -25
11095 419 -28
11090 442 -32
11090 465 -35
11070 488 -39
11058 510.99997 -42
11046 533 -45
11038 556 -48
11031 579 -52
11014 602 -54
10992 624 -57
10957 645 -60
10904 665 -62
10902 687 -65
10918 711 -68
10877 732 -70
10885 755 -73
10876 778 -75
10853 799 -77
10803 818 -79
10770 838 -81
10680 853 -82
10689 877 -84
10642 895 -86
10566 910 -87
10514 928 -88
10477 946 -89
10469 967 -91
10452 987 -92
10464 1010 -94
10454 1031 -95
10473 1055 -96
10477 1076 -98
10494 1099 -99
10501 1122 -100
10505 1144 -101
10530 1169 -102
10539 1191 -103
10558 1215 -104
10570 1238 -105
10587 1262 -106
10604 1285 -106
10618 1309 -107
10628 1331 -108
10639 1354 -108
10663 1379 -109
10674 1402 -109
10689 1425 -109
10707 1449 -110
10715 1472 -110
10737 1496 -110
10749 1519 -110
10768 1543 -110
10782 1566 -110
10811 1592 -110
10819 1614 -109
10820 1636 -109
10852 1662 -109
10855 1684 -108
10881 1709 -107
10888 1731 -107
10892 1753 -106
10913 1777 -106
10925 1800 -105
10946 1825 -104
10964 1849 -103
10979 1872 -102
10993 1896 -101
11010 1919 -100
11019 1942 -99
11026 1964 -97
11043 1988 -96
11057 2010.9999 -95
11079 2036 -93
11090 2059 -92
11092 2080 -90
11106 2103 -88
11133 2129 -87
11142 2151 -85
11154 2174 -83
11171 2197 -81
11186 2220 -79
11193 2241 -77
11212 2265 -75
11225 2289 -73
11238 2311 -71
11238 2331 -68
11265 2357 -66
11289 2382 -64
11298 2404 -61
11307 2425 -59
11310 2445 -56
11244 2451 -53
11343 2492 -51
11340 2511 -48
11363 2535 -45
11387 2560 -42
11404 2583 -40
11402 2601 -36
11421 2625 -33
11440 2648 -30
11452 2670 -27
11455 2689 -24
11476 2713 -21
11469 2730 -18
11496 2754 -14
11511 2776 -11
11525 2798 -7
11534 2819 -4
11557 2843 0
11568 2864 2
11567 2881 6
11583 2903 10
11599 2925 14
11602 2944 18
11617 2965 21
11626 2985 25
11636 3005 30
11635 3022 33
11667 3047 37
11674 3066 42
11688 3087 46
11699 3107 50
11696 3123 54
11711 3143 58
11735 3167 63
11738 3184 67
11751 3204 71
11764 3223 76
11778 3243 80
11778 3259 85
11790 3278 89
11809 3299 94
11824 3319 99
11842 3340 104
11829 3351 108
11851 3373 113
11864 3392 118
11864 3407 122
11872 3424 127.00001
11884 3442 132
11896 3460 137
11904 3477 142
11902 3491 147
11913 3508 152
11943 3531 157
11951 3548 162
11936 3557 167
