# .PCD v0.7 - Point Cloud Data file format
VERSION 0.7
FIELDS x y z
SIZE 4 4 4
TYPE F F F
COUNT 1 1 1
WIDTH 2946
HEIGHT 1
VIEWPOINT 0 0 0 1 0 0 0
POINTS 2946
DATA ascii
15176 -799 1161
15102 -815 1180
15312 -847 1220
15476 -877 1258
15537 -901 1287
15569 -924 1314
15624 -949 1343
15667 -973 1371
15765 -1000 1404
15790 -1023 1430
18706 -1238 1723
18713 -1264 1753
18711 -1289 1781
18712 -1315 1809
18728 -1342 1839
18733 -1368 1867
18718 -1393 1894
18718 -1419 1921
18713 -1445 1948
18705 -1470 1975
18724 -1497 2004
18731 -1524 2032.0001
18762 -1553 2063
18762 -1579 2090
18760 -1605 2116
18757 -1631 2143
18788 -1660 2173
18811 -1688 2202
18772 -1710 2223
18803 -1739 2252
18830 -1768 2282
18820 -1793 2306
18821 -1820 2332
18831 -1847 2359
16099.001 -1601 2038.0001
16042.999 -1618 2052
16056 -1642 2075
15945 -1653 2082
15984 -1680 2108
15971 -1701 2128
15904 -1716 2139
15895 -1737 2158
15967 -1768 2189
15906 -1783 2201
20286 -2303 2832
20267 -2329 2855
20280 -2359 2882
20293 -2388 2909
20320 -2420 2938
20278 -2443 2957
20301 -2474 2985
22902 -2824 3395
22886 -2853 3420
22874 -2884 3445
22909 -2920 3477
22944 -2957 3510
23023 -2999 3548
24555 -3232 3813
24685 -3284 3861
24706 -3321 3893
24731 -3358 3924
24717 -3390 3950
24716 -3424 3977
24711 -3457 4002.9998
24723 -3492 4031.0002
24712 -3525 4056.0002
24729 -3561 4085
24772 -3602 4119
24772 -3636 4145
28925 -4285 4871
28923 -4324 4900
28895 -4359 4925
28895 -4398 4954
28897 -4437 4984
28893 -4475 5012
28897 -4515 5041
28907 -4555 5071
28959 -4602 5108
28962 -4642 5137
28965 -4681 5165
29063 -4734 5209
29124 -4783 5248
29122 -4821 5274
29182 -4869 5311
29182 -4908 5338
29166 -4943 5361
29139 -4977 5382
0 0 0
28454 -4933 5304
28226 -4931 5287
27962 -4920 5260
27745 -4917 5243
27502 -4910 5220
27282 -4904 5201
27143 -4914 5196
27003 -4923 5191
26996 -4956 5211
26987 -4988 5230
27005 -5025 5254
26990 -5056 5272
26993 -5089 5292
26961 -5116 5306
26942 -5146 5322
26958 -5182 5344
27021 -5227 5376
27306 -5314 5452
27497 -5384 5509
27659 -5448 5560
28557 -5660 5759
28674 -5716 5802
28698 -5754 5826
28741 -5796 5853
28746 -5831 5872
28745 -5864 5889
28758 -5900 5909
28789 -5938 5933
28826 -5979 5958
28800 -6006 5969
28855 -6049 5996
28941 -6100 6030
28925 -6128 6043
28900 -6155 6053
29074 -6223 6105
27677 -5954 5826
27208 -5883 5741
29105 -6324 6156
29039 -6341 6156
27014 -5927 5740
27072 -5969 5765
26992 -5978 5760
26873 -5980 5747
26955 -6025 5776
27072 -6079 5813
27091 -6110 5829
27145 -6150 5851
27049 -6154 5842
27045 -6180 5851
27014 -6199 5854
27009 -6225 5863
26998 -6247 5870
27055 -6286 5892
27021 -6304 5894
26993 -6323 5896
27032 -6357 5914
26880 -6346 5889
27145 -6432 5955
27420 -6521 6024
27078 -6464 5956
27041 -6479 5955
27056 -6506 5965
27048 -6528 5970
27141 -6574 5997
27166 -6602 6009
27240 -6643 6032
27042 -6616 5993
27050 -6640 6001
27058 -6664 6008
27020 -6676 6004
26984 -6689 6001
26960 -6704 5999
26979 -6729 6008
26987 -6751 6014
26951 -6762 6009
26909 -6771 6003
26822 -6769 5986
26869 -6800 5999
26819 -6806 5990
26730 -6802 5973
26834 -6847 5998
26740 -6841 5978
26709 -6851 5973
26709 -6868 5974
26652 -6870 5962
26613 -6876 5954
29735 -7703 6653
29730 -7720 6652
26693 -6947 5972
26710 -6967 5976
26540 -6938 5937
28980 -7593 6481
29000 -7614 6485
28926 -7610 6467
0 0 0
28723 -7587 6417
28642 -7581 6396
0 0 0
45169 -12001 10078
45090 -12001 10056
45081 -12020 10049
45088 -12042 10045
45119 -12071 10044
45121 -12091 10039
45136 -12114 10034
45122 -12130 10023
45094 -12141 10009
45036 -12143 9987
45036 -12159 9979
45148 -12207 9995
45031 -12191 9959
45053 -12212 9954
45069 -12232 9947
45013 -12231 9923
45061 -12259 9922
45074 -12276 9913
45072 -12289 9900
45029 -12289 9879
45086 -12317 9878
45055 -12320 9858
30496 -8347 6663
30485 -8351 6650
30484 -8357 6640
30454 -8355 6624
30466 -8364 6616
30462 -8369 6604
30456 -8373 6591
30465 -8381 6582
30472 -8387 6572
30471 -8390 6560
30480 -8398 6549
30485 -8403 6538
30503 -8410 6530
30498 -8412 6515
30533 -8423 6510
30527 -8424 6495
30536 -8428 6483
30553 -8434 6473
30547 -8434 6457
30548 -8434 6444
30562 -8439 6432
30568 -8440 6418
30566 -8439 6402
30568 -8439 6387
30580 -8442 6373
30599 -8445 6362
30585 -8439 6342
30608 -8443 6330
30606 -8440 6313
30634 -8445 6301
27610 -7608 5664
27568 -7593 5640
27524 -7577 5614
27356 -7527 5564
27243 -7492 5525
27221 -7481 5504
27175 -7463 5478
27136 -7448 5453
27144 -7444 5437
27115 -7430 5414
27072 -7412 5389
27051 -7400 5367
27043 -7390 5348
26947 -7357 5311
26898 -7336 5283
26872 -7321 5259
26887 -7317 5244
26867 -7303 5221
26855 -7292 5200
26821 -7273 5175
26835 -7267 5158
26841 -7259 5140
26818 -7243 5116
26840 -7239 5101
26828 -7225 5078
26824 -7212 5058
26870 -7214 5046
26964 -7227 5043
27080 -7246 5044
27122 -7245 5031
27153 -7241 5016
27157 -7229 4995
27138 -7210 4970
27167 -7204 4954
27170 -7191 4933
27051 -7145 4890
26788 -7061 4820
26619 -7002 4767
26589 -6979 4740
26582 -6962 4716
26584 -6947 4694
26553 -6923 4666
26550 -6906 4643
26548 -6889 4620
26555 -6874 4598
26559 -6858 4575
26587 -6848 4557
26580 -6828 4532
26579 -6810 4508
26560 -6787 4482
26547 -6764 4456
26454 -6722 4416
26264 -6655 4361
0 0 0
25223 -6354 4143
25137 -6313 4105
24950 -6247 4052
24895 -6214 4020
24850 -6183 3990
24821 -6156 3962
24729 -6113 3923
24567 -6053 3874
24209 -5944 3795
23977 -5867 3736
23818 -5807 3688
23696 -5757 3646
23627 -5719 3613
23442 -5654 3562
23196 -5573 3502
23005 -5506 3451
21630 -5157 3223
21718 -5158 3214
21660 -5123 3185
21632 -5096 3159
21618 -5072 3136
21605 -5048 3112
21627 -5031 3094
21629 -5011 3072
19319 -4456 2725
19346 -4442 2709
19328 -4418 2687
19260 -4382 2658
19325 -4377 2647
19355 -4363 2631
19369 -4345 2613
19376 -4326 2594
19412 -4312 2579
19401 -4288 2558
19410 -4269 2538
19377 -4239 2514
18992 -4133 2444
18317 -3965 2338
18147 -3907 2297
18055 -3866 2267
18017 -3837 2243
17996 -3810 2221
18010 -3792 2204
18014 -3771 2185
18067 -3760 2173
18048 -3734 2152
18062 -3714 2134
18078 -3695 2117
18046 -3665 2094
18100 -3653 2081
18104 -3631 2062
18116 -3610 2043.9999
18111 -3585 2023.9999
18111 -3561 2005.0001
18119 -3538 1986
18111 -3513 1966
18142 -3494 1950
18154 -3472 1931
18155 -3448 1912
18143 -3421 1892
18162 -3400 1875
18173 -3377 1856
18195 -3355 1839
18189 -3329 1819
18219 -3308 1802
18231 -3285 1784
18233 -3259 1765
18249 -3235 1747
18270 -3212 1729
18243 -3181 1707
18264 -3158 1690
18304 -3138 1674
18254 -3102 1651
18271 -3078 1633
18233 -3045 1610
18188 -3010 1587
17948 -2942 1547
17854 -2899 1520
17747 -2855 1492
17679 -2816 1467
17599 -2777 1442
17505 -2735 1416
17438 -2697 1393
17363 -2658 1368
17315 -2623 1346
17193 -2577 1319
17109 -2537 1295
17034 -2499 1271
16966 -2461 1248
16931 -2429 1229
16868 -2392 1206
16692 -2340 1177
16572 -2295 1151
16553 -2265 1133
16489 -2230 1111
16484 -2201 1094
16375 -2160 1070
16193.001 -2108 1042
16143 -2074 1021.9999
16150 -2048 1006.0001
15930 -1992 976
15870 -1958 957
15824 -1924 938
15807 -1895 921
15782 -1865 904
15726 -1831 885
15697 -1800 868
15674 -1769 851
15621 -1736 833
15594 -1705 816
15541 -1671 798
15462 -1635 779
15442 -1605 763
15385 -1571 745
15324 -1538 728
15274 -1505 710
15194 -1469 692
15125 -1435 674
15049 -1400 657
14990 -1367 640
14955 -1337 625
14900 -1304 609
14875 -1274 594
14823 -1243 578
14744 -1209 562
14694 -1177 546
14600 -1142 529
14577 -1113 516
11984 -892 413
11923 -866 400
11918 -843 390
11878 -817 378
11844 -792 366
11839 -769 356
11836 -746 345
11814 -722 334
11820 -700 324
11808 -676 314
11808 -653 304
11809 -630 294
11806 -607 284
11808 -584 274
11815 -561 265
11804 -537 255
11809 -514 245
11814 -491 236
11824 -468 226
11814 -445 217
11823 -421 207
11821 -398 198
11812 -374 189
11789 -350 179
11759 -326 170
11700 -301 160
11662 -276 151
11654 -252.99998 142
11592 -228 132
11585 -204 124
11544 -180 115
11539 -157 106
11509 -133 98
11461 -110 89
11444 -86 81
11416 -63 73
11383 -39 65
11363 -17 57
11349 5 49
11318 28 41
11291 51 34
11274 74 26
11243 97 19
11230 120 12
11203 143 4
11177 165 -2
11149 188 -9
11128 210 -16
11125 233 -22
11095 255 -29
11072 277 -35
11037 299 -42
10997 320 -48
10938 341 -54
10877 362 -60
10851 383 -66
10817 404 -72
10744 424 -77
10674 443 -83
10616 463 -88
10584 483 -93
10519 501.99997 -98
10449 520 -103
10417 540 -108
10368 559 -113
10368 581 -118
10355 601 -123
10349 622 -127.00001
10339 643 -132
10335 664 -137
10330 685 -142
10338 707 -146
10324 727 -151
10330 749 -155
10317 770 -160
10329 792 -164
10348 815 -169
10345 836 -173
10354 858 -177
10366 881 -182
10377 903 -186
10391 925 -190
10415 949 -194
10426 971 -198
10438 994 -202
10468 1018 -207
10481 1041 -211
10496 1064 -214
10515 1087 -218
10526 1110 -222
10544 1133 -226
10563 1157 -229
10579 1180 -233
10593 1203 -236
10610 1227 -240
10625 1250 -243
10645 1273 -246
10645 1295 -249
10665 1319 -252
10677 1342 -255
10701 1366 -259
10718 1390 -262
10730 1413 -264
10746 1437 -267
10768 1461 -270
10774 1484 -273
10798 1508 -275
10808 1531 -278
10821 1554 -280
10842 1578 -283
10857 1602 -285
10878 1626 -287
10893 1650 -289
10897 1672 -291
10920 1696 -293
10931 1719 -295
10948 1743 -297
10963 1767 -299
10982 1791 -301
10999 1814 -303
11010 1838 -304
11031 1862 -306
11043 1885 -308
11054 1908 -309
11068 1931 -310
11095 1957 -312
11105 1980 -313
11128 2005.0001 -314
11137 2027 -315
11149 2050 -316
11170 2074 -317
11178 2097 -318
11202 2122 -319
11201 2142 -319
11207 2164 -320
11238 2190 -321
11247 2213 -321
11263 2236 -322
11281 2260 -323
11283 2281 -322
11314 2307 -323
11332 2331 -323
11346 2354 -324
11356 2376 -324
11366 2398 -324
11391 2423 -324
11312 2426 -321
11417 2469 -323
11419 2489 -323
11444 2514 -323
11466 2539 -323
11463 2558 -322
11486 2583 -322
11497 2604 -321
11513 2627 -320
11521 2649 -319
11542 2673 -319
11548 2694 -318
11559 2715 -317
11583 2740 -316
11590 2760 -315
11606 2783 -314
11626 2807 -313
11643 2830 -312
11649 2849 -311
11662 2871 -310
11672 2892 -308
11684 2913 -307
11697 2935 -305
11711 2956 -304
11723 2977 -302
11732 2998 -300
11745 3019 -298
11775 3045 -297
11778 3063 -295
11786 3083 -293
11789 3101 -291
11816 3125 -289
11832 3147 -287
11823 3161 -285
11846 3185 -282
11852 3203 -280
11867 3224 -278
11870 3241 -275
11897 3265 -273
11917 3287 -271
11927 3306 -269
11930 3323 -266
11951 3345 -263
11954 3362 -261
11969 3382 -258
11972 3399 -255
11998 3422 -252.99998
11998 3438 -250
12000 3454 -246
12037 3480 -244
12023 3491 -240
12036 3510 -237
12057 3531 -235
12049 3543 -231
12081 3567 -228
12078 3581 -225
12092 3599 -222
12097 3615 -218
12123 3637 -215
12113 3648 -211
12125 3665 -208
12143 3685 -204
12147 3700 -201
12141 3711 -197
12177 3736 -194
12177 3749 -190
12185 3764 -187
12184 3777 -183
12192 3792 -179
12215 3812 -175
12212 3823 -171
12226 3840 -167
12235 3855 -164
12252 3872 -160
12247 3883 -156
12243 3893 -151
12269 3913 -148
12263 3922 -143
12274 3937 -139
12283 3951 -135
12284 3963 -131
12306 3980 -126
12303 3990 -122
12316 4005 -118
12310 4013 -114
12325 4028 -109
12337 4041.9998 -105
12339 4052 -101
12352 4067 -96
12340 4072 -92
12356 4086 -87
12369 4100 -83
12370 4109 -78
12374 4120 -74
12379 4130 -69
12382 4139 -65
12387 4149 -60
12396 4160 -56
12404 4171 -51
12416 4183 -46
12410 4189 -41
12402 4193 -37
12415 4205 -32
12418 4213 -27
12414 4219 -23
12435 4233 -17
12422 4235 -13
12436 4246 -8
12440 4254 -3
12440 4260 1
12458 4272 5
12464 4280 10
12445 4279 15
12452 4287 20
12462 4295 25
12458 4299 30
12466 4307 35
12483 4317 40
12460 4314 45
12468 4321 49
12480 4329 54
12475 4331 60
12474 4335 64
12471 4337 69
12471 4341 74
12466 4342 79
12461 4343 84
12465 4348 89
12462 4349 94
12479 4358 99
12463 4355 104
12474 4360 109
12471 4361 114
12469 4362 119
12470 4364 124
12468 4365 129
12471 4367 134
12473 4369 139
12474 4370 144
12449 4362 149
12461 4367 154
12462 4367 158
12464 4368 163
12451 4363 168
12461 4367 173
12450 4362 178
12452 4362 183
12447 4360 188
12443 4357 193
12442 4356 198
12437 4353 202
12439 4352 207
12427 4346 212
12435 4347 217
12435 4345 222
12420 4337 226
12415 4333 231
12401 4325 235
12417 4328 241
12401 4320 245
12412 4320 250
12410 4316 254.00002
12389 4305 259
12376 4297 263
12390 4298 268
12386 4293 273
12375 4284 277
12359 4275 281
12350 4267 286
12359 4265 291
12355 4259 295
12333 4246 299
12343 4244 304
12352 4242 308
12314 4223 312
12326 4221 317
12311 4210 321
12301 4201 325
12288 4190 329
12288 4183 333
12304 4182 338
12283 4168 341
12259 4153 345
12261 4146 349
12259 4138 354
12255 4130 358
12234 4115 361
12233 4107 365
12234 4099 370
12213 4084 373
12214 4074.9998 378
12208 4065 381
12186 4048.9998 384
12194 4043.0002 389
12197 4034.9998 393
12171 4017.0002 396
12171 4008 400
12189 4004.0002 404
12178 3991 408
12222 3996 413
12228 3987 417
12245 3983 421
12252 3975 425
12254 3965 429
12275 3961 433
12312 3962 438
12329 3957 442
12234 3915 442
12200 3893 444
12196 3880 448
12349 3917 457
14195 4489 529
14188 4473 533
14180 4457 537
14160 4436 539
14162 4422 544
14148 4403 547
14137 4385 550
14114 4363 553
14102 4345 556
14095 4328 559
14074 4306 561
14075 4290 565
14045 4266 567
14032 4246 570
14029 4229 573
14009 4207 575
14001 4188 578
13964 4161 580
13977 4148 584
13967 4129 586
13953 4108 588
13932 4084 590
13905 4059 592
13888 4037.0002 594
13897 4021.9998 597
13871 3998 599
13858 3976 601
13832 3951 602
13830 3932 605
13816 3910 606
13799 3887 608
13794 3868 610
13749 3836 610
13748 3818 613
13732 3794 614
13718 3772 615
13699 3748 617
13681 3724 617
13681 3705 620
13659 3679 621
13666 3662 623
13646 3637 623
13612 3608 624
13596 3584 624
13593 3564 626
13574 3538 626
13550 3512 626
13542 3489 627
13526 3465 628
13506 3440 628
13499 3417 629
13494 3395 630
13465 3367 629
13466 3347 630
13435 3318 630
13418 3292 630
13394 3265 629
13382 3241 629
13368 3217 629
13348 3190 629
13338 3167 628
13318 3140 628
13299 3114 627
13286 3089 627
13256 3061 626
13248 3037 626
13242 3014 625
13220 2986 624
13221 2964 624
13192 2935 622
13184 2912 621
13161 2884 620
13138 2856 619
13131 2832 618
13109 2805 616
13085 2777 614
13084 2754 614
13064 2727 612
13045 2700 610
13034 2675 609
13020 2649 607
12994 2620 604
12985 2596 603
12975 2570 601
12953 2543 599
12940 2517 597
12919 2489 594
12907 2464 592
12877 2434 589
12868 2409 587
12871 2386 585
12850 2358 582
12831 2331 580
12812 2304 577
12797 2278 574
12793 2253 571
12774 2226 568
12770 2201 566
12746 2174 562
12737 2148 559
12712 2120 555
12688 2092 552
12689 2068 549
12661 2039 545
12654 2014 542
12640 1987 538
12641 1963 535
12611 1934 531
12596 1908 527
12583 1881 523
12554 1853 518
12550 1828 514
12529 1801 510
12516 1774 505.99997
12503 1748 501.99997
12492 1722 497
12469 1695 492
12446 1667 488
12426 1639 483
12413 1613 478
12409 1589 474
12392 1562 469
12363 1533 463
12373 1510 459
12345 1482 454
12324 1455 448
12295 1428 442
12268 1400 437
12255 1374 431
12246 1348 426
12245 1324 421
12201 1294 414
12190 1269 409
12185 1244 404
12183 1219 398
12161 1193 392
12144 1166 386
12133 1141 380
12105 1114 373
12103 1089 367
12105 1065 362
12076 1038 355
12059 1011.9999 349
12052 987 342
12035 961 336
12018 936 329
12017 911 323
11990 885 316
11997 861 309
11976 836 302
11953 810 295
11939 785 288
11928 759 281
11914 735 274
11899 709 267
11888 685 259
11867 660 252
11865 636 245
11851 611 237
11827 586 230
11815 561 222
11807 537 215
11798 513 207
11781 488 199
11764 463 191
11765 440 183
11774 416 176
11763 392 168
11739 367 159
11721 343 151
11666 318 142
11615 293 134
11603 269 125
11568 245 117
11544 221 108
11540 198 100
11494 175 91
11454 151 82
11425 128 74
11402 104 65
11375 81 56
11338 58 47
11306 36 38
11275 13 29
11233 -9 21
11212 -31 12
11137 -53 3
11151 -75 -5
11120 -97 -14
11083 -119 -23
11007 -140 -32
10941 -160 -41
10862 -180 -50
10774 -200 -58
10678 -219 -67
10563 -237 -75
10455 -255 -83
10411 -275 -92
10404 -295 -101
10390 -315 -110
10396 -335 -119
10388 -355 -128
10408 -376 -138
10403 -395 -147
10417 -416 -156
10415 -436 -166
10423 -456 -176
10417 -476 -185
10424 -495 -195
10428 -516 -205
10435 -536 -215
10434 -556 -224
10426 -575 -234
10423 -595 -244
10415 -614 -254.00002
10410 -633 -264
10401 -651 -273
10391 -670 -283
10383 -689 -293
10375 -708 -303
10354 -726 -313
10350 -745 -323
10340 -763 -333
10341 -782 -344
10335 -800 -354
10325 -818 -364
10321 -837 -374
10312 -855 -385
10299 -873 -395
10289 -890 -405
10290 -908 -415
10279 -926 -426
10256 -942 -435
10260 -960 -446
10251 -977 -456
10261 -996 -468
10266 -1015 -479
10280 -1035 -490
10284 -1053 -501
10277 -1070 -512
10278 -1088 -523
10280 -1106 -534
10293 -1125 -546
10296 -1142 -557
10297 -1160 -568
10308 -1179 -580
10315 -1197 -592
10315 -1214 -603
10315 -1232 -614
10327 -1250 -626
10329 -1267 -638
10336 -1285 -650
7009 -883 -448
6982 -891 -454
6970 -900 -461
6957 -910 -468
6928 -917 -474
6920 -927 -481
6872 -932 -485
6867 -942 -492
6836 -949 -498
6857 -962 -507.00003
6835 -970 -513
6823 -979 -520
6828 -990 -528
6842 -1002 -537
6832 -1011.0001 -544
6879 -1029 -555
6851 -1035 -561
6854 -1045 -569
6858 -1056 -577
10268 -1597 -876
10245 -1609 -885
10211 -1618 -894
10180 -1628 -903
10148 -1638 -912
10120 -1648 -921
10092 -1658 -930
10048 -1665 -937
10026 -1676 -947
9995 -1685 -955
9946 -1690 -962
9931 -1701 -972
9890 -1708 -979
9859 -1716 -987
9836 -1725 -996
9800 -1732 -1003.9999
9781 -1743 -1013
9763 -1752 -1021.9999
9758 -1764 -1033
9709 -1768 -1039
9696 -1779 -1048
9663 -1785 -1056
9631 -1792 -1063
9604 -1799 -1071
9586 -1808 -1080
9554 -1814 -1087
9541 -1823 -1097
9514 -1830 -1105
9484 -1836 -1112
9437 -1838 -1117
9425 -1847 -1126
9394 -1853 -1133
9380 -1861 -1142
9356 -1868 -1150
9328 -1873 -1157
9298 -1878 -1164
9282 -1885 -1172
9243 -1888 -1178
9227 -1895 -1186
9197 -1899 -1192
9167 -1903 -1199
9159 -1912 -1208
9127 -1915 -1213
9093 -1918 -1219
9080 -1925 -1227
9063 -1931 -1235
9037 -1934 -1241
9002 -1936 -1246
8987 -1942 -1254
8968 -1947 -1261
8937 -1949 -1266
8933 -1957 -1275
8868 -1952 -1276
8842 -1955 -1281
8855 -1966 -1293
8847 -1973 -1301
8846 -1981 -1310
8827 -1985 -1317
8794 -1986 -1321
8756 -1985 -1325
8725 -1986 -1329
8713 -1991 -1336
8700 -1996 -1343
8677 -1998 -1349
8650 -1999 -1354
8626 -2000.9999 -1359
8613 -2005.0001 -1366
8598 -2009.0001 -1372
8581 -2012.0001 -1378
8566 -2015.0001 -1384
8547 -2017.9999 -1390
8526 -2019 -1395
8507 -2020.9999 -1400
8480 -2020.9999 -1404
8469 -2025.0001 -1411
8458 -2029 -1417
8422 -2026 -1420
8405 -2028.0001 -1425
8399 -2033 -1432
8384 -2035.0001 -1437
8359 -2035.0001 -1441
8331 -2033 -1444
8323 -2037 -1451
8311 -2039 -1456
8302 -2042 -1462
8277 -2040.9999 -1466
8265 -2043 -1471
8241 -2042 -1475
8232 -2045.0001 -1480
8209 -2043.9999 -1483
8189.9995 -2043.9999 -1488
8185.0005 -2046.9999 -1494
8166.0005 -2046.9999 -1498
8153 -2048 -1502
8146 -2051 -1508
8130.9995 -2051 -1512
8112.0005 -2050 -1516
8101 -2052 -1521
8079.0005 -2050 -1523
8071.9995 -2052 -1529
8061 -2053 -1533
8038.9995 -2051 -1536
8031.9995 -2052 -1541
8012.9995 -2051 -1544
7999 -2050 -1548
7970 -2046 -1548
7962 -2046.9999 -1553
7952 -2048 -1557
7913 -2040 -1556
7945 -2052 -1568
7937 -2052 -1572
7924 -2051 -1576
7929 -2055 -1583
7923 -2056 -1588
7905 -2054 -1590
7903 -2055 -1595
7888 -2054 -1597
7882 -2054 -1602
7881 -2056 -1607
7862 -2053 -1609
7839 -2048 -1609
7839 -2050 -1615
7815 -2046 -1615
7803 -2043.9999 -1618
7797 -2043 -1621
7800 -2046 -1627
7780 -2040.9999 -1628
7765 -2039 -1629
7757 -2038.0001 -1632
7753 -2038.0001 -1636
7740 -2035.0001 -1638
7745 -2037 -1644
7731 -2033.9999 -1645
7712 -2029 -1646
7710 -2029 -1650
7694 -2026 -1650
7693 -2026 -1654
7699 -2028.0001 -1660
7677 -2022.0001 -1659
7665 -2019 -1660
7657 -2017 -1662
7652 -2015.0001 -1665
7644 -2013 -1667
7629 -2009.0001 -1668
7623 -2007 -1670
7610 -2003 -1671
7622 -2005.0001 -1677
7615 -2003 -1679
7559 -1987 -1670
7565 -1988 -1674
7553 -1984 -1675
7554 -1983 -1678
7553 -1982 -1681
7539 -1977 -1681
7540 -1976 -1684
7557 -1979 -1690
7559 -1979 -1694
7554 -1976 -1695
7534 -1969 -1693
7541 -1969 -1697
7528 -1964 -1697
7496 -1954 -1692
7499 -1953 -1695
7511 -1954 -1700
7510 -1951 -1702
7529 -1954 -1708
7514 -1948 -1707
7524 -1948 -1711
7520 -1945 -1712
7507 -1939 -1711
7498 -1934 -1710
7494 -1930 -1711
7487 -1926 -1711
7463 -1917 -1707
7481 -1919 -1712
7472 -1913 -1712
7466 -1909 -1712
7453 -1903 -1710
7459 -1901 -1712
7458 -1898 -1713
7479 -1899 -1719
7451 -1889 -1713
7444 -1884 -1712
7446 -1880 -1714
7443 -1876 -1714
7439 -1871 -1713
7442 -1868 -1714
7438 -1864 -1714
7462 -1866 -1720
7459 -1861 -1719
7468 -1859 -1722
7458 -1852 -1719
7461 -1849 -1720
7469 -1847 -1722
7436 -1834 -1714
7448 -1833 -1717
7460 -1831 -1719
7451 -1824 -1717
7456 -1821 -1718
7460 -1817 -1718
7466 -1814 -1719
7462 -1808 -1717
7460 -1802 -1716
7468 -1799 -1717
7465 -1793 -1715
7455 -1786 -1712
7459 -1781 -1712
7441 -1772 -1707
7470 -1773 -1712
7469 -1767 -1711
7466 -1761 -1709
7455 -1753 -1705
7465 -1750 -1705
7467 -1745 -1704
7492 -1745 -1709
7517 -1744 -1712
7506 -1736 -1708
7515 -1732 -1708
7510 -1725 -1705
7485 -1713 -1697
7488 -1707 -1696
7527 -1710 -1702
7534 -1705 -1702
7535 -1699 -1700
7500 -1684 -1689
7524 -1683 -1692
7540 -1680 -1693
7550 -1676 -1692
7552 -1669 -1690
7556 -1663 -1688
7576 -1661 -1690
7572 -1653 -1686
7576 -1647 -1684
7598 -1644 -1685
7594 -1637 -1681
7608 -1632 -1681
7611 -1625 -1678
7613 -1619 -1675
7624 -1613 -1674
7616 -1605 -1668
7641 -1602 -1670
7655 -1597 -1669
7657 -1590 -1666
7629 -1577 -1656
7666 -1576 -1660
7676 -1571 -1658
7656 -1559 -1649
7695 -1559 -1653
7701 -1552 -1650
7714 -1547 -1648
7723 -1540 -1646
7727 -1533 -1642
7742 -1528 -1640
7752 -1521 -1638
7772 -1517 -1637
7783 -1510 -1634
7803 -1506 -1633
7817 -1500 -1631
7805 -1489 -1623
7823 -1484 -1622
7827 -1476 -1617
7792 -1460 -1604
7858 -1464 -1612
7879 -1459 -1611
7877 -1450 -1604
7865 -1438 -1596
7888 -1433 -1595
7894 -1425 -1590
7914 -1420 -1588
7897 -1408 -1578
7908 -1400 -1574
7914 -1392 -1569
7938 -1387 -1567
7942 -1378 -1561
7979 -1375 -1562
7981 -1366 -1556
8003.0005 -1360 -1553
8031 -1355 -1552
8038.9995 -1346 -1546
8054 -1339 -1542
8066 -1331 -1537
8086.0005 -1325 -1533
8109.9995 -1319 -1530
8102 -1308 -1521
8134 -1303 -1520
8139 -1293 -1513
8151 -1285 -1508
8175 -1279 -1504
8197 -1272 -1500
8203 -1263 -1493
8217 -1255 -1488
8252 -1250 -1486
8258 -1240 -1478
8281 -1233 -1474
8298 -1225 -1468
8331 -1219 -1466
8341 -1210 -1459
8353 -1201 -1452
8376 -1194 -1447
8402 -1187 -1442
8427 -1179 -1437
8436 -1169 -1429
8459 -1162 -1424
8474 -1153 -1417
8506 -1146 -1413
8523 -1137 -1406
8543 -1129 -1400
8554 -1120 -1392
8569 -1110 -1384
8590 -1102 -1377
8614 -1093 -1371
8629 -1084 -1363
8677 -1079 -1360
8697 -1070 -1353
8724 -1062 -1346
8749 -1053 -1339
8775 -1045 -1332
8807 -1037 -1326
8840 -1029 -1320
8857 -1020 -1312
8876 -1010 -1303
8912 -1003 -1297
8938 -994 -1290
8955 -984 -1280
8978 -975 -1272
9012 -966 -1265
9045 -958 -1258
9062 -948 -1248
9091 -939 -1240
9116 -929 -1231
9100 -916 -1216
9168 -911 -1213
9205 -902 -1205
9237 -893 -1197
9266 -884 -1188
9290 -874 -1178
9333 -865 -1170
9357 -856 -1160
9392 -846 -1151
9440 -838 -1143
9459 -828 -1132
9478 -817 -1121
9520 -808 -1112
9534 -797 -1100
9559 -787 -1089
9600 -777 -1079
9660 -770 -1072
9711 -761 -1063
9750 -751 -1053
9773 -740 -1040
9819 -731 -1031
9848 -721 -1019.0001
9891 -711 -1008
9934 -701 -996
9963 -690 -984
10001 -680 -972
10047 -670 -961
10093 -660 -950
10122 -649 -936
10175 -639 -925
10217 -629 -913
6829 -412 -599
6797 -401 -586
6816 -393 -576
6813 -385 -565
6823 -376 -555
6822 -368 -543
6805 -359 -531
6829 -351 -522
6861 -344 -513
6865 -336 -501.99997
6896 -329 -493
6939 -322 -484
6957 -315 -474
10559 -465 -702
10569 -452 -685
10561 -439 -667
10552 -426 -648
10542 -413 -630
10532 -400 -611
10539 -387 -593
10527 -374 -575
10529 -361 -557
10509 -348 -537
10509 -336 -519
10498 -323 -500
10503 -311 -482
10497 -298 -463
10482 -285 -445
10478 -273 -426
10462 -260 -407
10468 -248 -388
10451 -236 -369
10442 -223 -349
10428 -211 -330
10425 -199 -312
10417 -187 -292
10419 -175 -274
10411 -164 -255
10402 -152 -236
10403 -140 -217
10394 -129 -198
10384 -117 -178
10384 -106 -160
10374 -94 -140
10382 -83 -121
10410 -72 -102
10605 -62 -84
10828 -51 -66
11033 -41 -47
11089 -29 -26
11130 -17 -6
11214 -6 14
11317 5 35
11359 17 57
11474 28 78
11565 40 101
11603 52 123
11708 65 146
11788 77 169
11792 89 192
11788 100 214
11778 112 236
11770 123 258
11766 135 281
11786 146 304
11831 158 327
11839 170 350
12005 183 378
14589 237 487
14718 252.99998 520
14832 268 552
14935 284 585
15092 301 620
15138 315 651
15275 332 687
15400 348 722
15518 365 757
15684 383 796
15769 399 831
15897 416 869
16021.999 433 906
16160.999 450 945
16299.999 468 985
16413 485 1024
16563 503.00003 1065
16717 521 1108
16874 540 1151
17017 558 1194
17123 576 1235
17266 594 1278
17453 615 1326
17681 636 1378
17760 653 1418
17735 666 1451
17716 678 1484
17748 693 1521
17733 706 1555
17762 720 1592
17731 732 1624
17728 744 1658
17724 757 1691
17762 771 1730
17747 783 1763
17732 795 1795
17768 808 1833
17728 819 1864
17741 831 1900
17753 844 1935
17760 856 1970
17744 866 2002.0001
17724 876 2033.9999
17744 889 2070
17718 898 2101
17813 914 2147
19440 1010 2380
19519 1026 2427
19556 1039 2469
19618 1054 2515
23465 1275 3053
23430 1287 3094
23430 1300 3139
23412 1312 3181
23403 1325 3224
23376 1336 3264
23385 1349 3311
23352 1359 3350
23348 1372 3393
23321 1382 3433
23305 1393 3475
23288 1404 3516
23305 1417 3564
23273 1426 3602
23290 1438 3648
23310 1450 3695
23390 1466 3751
23436 1480 3802
23544 1498 3863
23512 1506 3902
23507 1516 3945
23509 1526 3988
23507 1536 4030.0002
23476 1544 4068.9998
23532 1557 4121
28787 1916 5094
23494 1573 4200
23406 1577 4228
23381 1584 4265
23352 1591 4302
23341 1599 4342
23335 1606 4383
23303 1612 4419
23303 1620 4460
35556 2485 6869
35560 2497 6933
35547 2507 6993
35574 2521 7062
35604 2534 7130
36017 2575 7275
36249 2602 7385
36257 2612 7449
28487 2061 5901
28538 2072 5961
28539 2080 6011
28512 2085 6054
36634 2689 7841
36658 2700 7908
36651 2708 7968
36659 2718 8031
36662 2726 8094
44430 3314 9882
44421 3323 9953
44443 3333 10030
44454 3343 10106
44459 3352 10180
44444 3359 10249
44431 3367 10317
44385 3372 10379
44376 3378 10448
44345 3384 10512
44358 3392 10586
44325 3396 10647
48115 3694 11633
48111 3699 11707
48058 3702 11770
48037 3706 11837
47991 3708 11902
47986 3713 11974
47962 3717 12042
47947 3720 12110
47919 3722 12176
28000 2178 7155
27973 2178 7190
27943 2178 7224
27968 2181 7271
27955 2183 7308
27913 2180 7337
27903 2181 7375
47750 3736 12690
47743 3737 12756
47740 3738 12822
47687 3735 12875
47676 3737 12939
47672 3737 13004
47653 3736 13064
47631 3735 13123
47628 3734 13186
47601 3732 13242
47573 3729 13298
47552 3727 13355
47540 3725 13413
47522 3723 13469
47522 3721 13530
47488 3716 13581
47468 3714 13634
47463 3711 13692
47435 3706 13743
47438 3703 13803
47418 3698 13855
47400 3695 13906
47376 3689 13956
47359 3684 14007
47369 3680 14065
47333 3673 14110
47305 3666 14155
47298 3662 14207
47295 3657 14259
47250 3647 14299
47216 3640 14340
47191 3632 14384
47173 3625 14430
47159 3617 14476
47161 3611 14526
47147 3603 14571
47173 3599 14627
47171 3592 14674
47173 3586 14723
47157 3577 14764
47146 3569 14807
47142 3561 14852
47108 3551 14885
47112 3541 14931
47098 3532 14970
47088 3524 15011
47091 3514 15053
47057 3503 15084
47071 3495 15129
47049 3484 15163
47033 3473 15198
47026 3462 15235
47001 3452 15265
47006 3441 15305
46993 3430 15338
46985 3419 15373
46979 3407 15407
46965 3395 15439
46957 3384 15470
46946 3372 15501
46946 3360 15535
46913 3347 15557
46916 3335 15590
46905 3322 15618
46902 3309 15649
46886 3296 15674
46883 3284 15702
46882 3269 15731
46861 3256 15753
46856 3241 15779
46878 3231 15814
46859 3217 15834
46840 3202 15853
46837 3188 15877
46841 3174 15904
46844 3160 15928
46834 3145 15949
46821 3130 15966
46808 3115 15984
46811 3100 16006.001
46802 3085 16024
46806 3070 16046
46794 3053 16061.001
46798 3038 16080.999
46788 3022 16094.999
46794 3007 16115
46790 2992 16129.999
46780 2974 16143
46769 2958 16153.999
46782 2943 16173
46785 2926 16188
46767 2909 16195
46773 2894 16209
46760 2876 16216.999
46779 2860 16235.001
46754 2842 16237
46764 2825 16250
46773 2808 16263
46760 2790 16267
46751 2772 16271
46772 2757 16285
46762 2738 16288
46740 2720 16285.999
46743 2702 16292
46752 2685 16299.999
46764 2667 16308.001
46765 2649 16312
46764 2631 16313
46755 2612 16312
46752 2593 16312
46741 2574 16308.001
46748 2556 16309.999
46774 2539 16318.001
46758 2519 16311.001
46768 2501 16312
46758 2481 16305
46758 2462 16302
46781 2443 16305
46770 2423 16296
46770 2405 16290.001
46771 2385 16284
46769 2365 16275.999
46765 2345 16267
46798 2327 16270
46799 2307 16261
46795 2286 16250
46785 2266 16236
46800 2247 16230
46823 2228 16225
46825 2209 16214.001
46834 2189 16204
46822 2168 16184.999
46826 2148 16172.001
46828 2127 16157
46847 2108 16148.001
46848 2088 16131.001
46846 2067 16113.001
46873 2046.9999 16105
46853 2026 16080
46861 2006 16063
46885 1986 16051.001
46875 1964 16027
46893 1944 16011.999
46893 1924 15990
46908 1903 15972
46894 1881 15944
46902 1862 15923
46914 1841 15902
46940 1820 15885
46951 1799 15863
46937 1779 15832
46962 1757 15812
46984 1737 15792
46995 1716 15767
46997 1694 15739
47011 1673 15714
47015 1653 15684
47021 1630 15655
47041 1609 15629
47032 1589 15593
47065 1568 15571
47071 1548 15539
47058 1526 15500
47072 1505 15469
47092 1483 15440
47112 1462 15411
47129 1441 15379
47125 1419 15340
47125 1399 15301
47134 1377 15264
47157 1356 15232
47188 1336 15201
47194 1314 15162
47206 1293 15124
47237 1273 15092
47251 1252 15053
47234 1230 15005
47260 1209 14968
47273 1188 14928
47286 1167 14886
47294 1145 14842
47305 1125 14798
47320 1104 14756
47333 1083 14712
47358 1062 14671
47385 1042 14630
47402 1021 14585
47396 999 14533
47421 979 14489
47423 959 14439
47430 938 14388
47465 919 14347
47468 898 14294
47502 878 14250
47503 857 14196
47529 838 14149
47520 817 14090
47562 796 14047
47580 776 13995
47595 757 13941
47610 736 13889
47615 716 13831
47641 696 13780
47652 678 13722
47671 658 13667
47710 638 13617
47706 618 13554
47742 599 13502
47750 581 13442
47761 561 13382
47779 542 13323
47774 522 13257
47788 505 13197
47816 486 13139
47850 467 13082
47866 448 13019
47901 430 12962
47945 411 12906
47942 393 12836
28102 219 7484
28066 209 7434
28058 197 7390
28071 187 7353
28115 177 7323
28136 167 7287
28163 158 7252
28215 147 7222
45423 221 11558
45547 206 11521
45533 190 11447
45537 175 11379
45525 159 11305
45546 144 11240
45581 129 11176
45580 113 11105
45647 99 11049
45641 83 10974
45646 69 10902
45679 55 10836
45694 41 10766
45723 27 10698
45745 13 10628
45784 -1 10560
45791 -15 10485
45812 -29 10413
45816 -42 10336
28496 -34 6380
28498 -42 6332
28518 -50 6288
28526 -57 6240
28558 -66 6199
28554 -73 6147
28574 -81 6102
28587 -87 6055
28604 -95 6008
28628 -102 5963
28611 -109 5910
28676 -116 5871
0 0 0
26828 -121 5396
26899 -127.00001 5362
26892 -133 5312
26883 -139 5261
23403 -126 4537
23380 -130 4490
23386 -135 4448
23397 -140 4407
23365 -144 4358
26837 -170 4955
26837 -175 4905
26830 -180 4853
26824 -184 4802
26812 -189 4749
26813 -193 4698
26801 -197 4646
26817 -201 4597
26821 -204 4546
26838 -208 4497
26838 -211 4445
26822 -215 4391
26697 -217 4318
26628 -219 4255
26570 -222 4194
26576 -224 4143
26569 -227 4090.0002
26530 -229 4032
26400 -230 3961
26052 -229 3857
25728 -228 3758
20167 -180 2906
20156 -181 2864
20155 -182 2823
20176 -183 2786
20182 -184 2747
20160 -184 2703
19624 -180 2592
18682 -172 2430
18600 -171 2382
18592 -171 2343
18584 -171 2304
18564 -171 2264
18548 -171 2225
18532 -170 2185
18521 -170 2146
18527 -169 2108
18502 -168 2067
18486 -167 2028.0001
18484 -166 1990
18480 -165 1951
18458 -164 1911
18436 -162 1870
18426 -161 1831
18408 -159 1790
18356 -157 1747
18331 -155 1708
18311 -153 1668
18292 -151 1628
18260 -148 1586
18025 -144 1529
17805 -140 1473
17622 -136 1421
17490 -133 1374
17305 -129 1323
17148 -125 1275
14831 -106 1072
14783 -103 1037
14717 -100 1001.0001
14664 -96 966
14659 -94 936
14668 -91 905
14681 -88 875
14689 -85 845
14671 -81 812
14701 -78 783
14702 -75 752
14714 -71 721
14726 -68 691
14721 -64 660
14715 -60 628
14712 -56 597
14724 -52 566
14715 -48 535
14632 -43 501
11900 -32 383
11837 -28 355
11796 -24 329
11771 -20 304
11778 -17 279
11785 -13 254.00002
11791 -9 230
11805 -5 205
11770 -1 179
11673 3 153
11605 7 128
11511 11 103
11414 15 78
11326 20 53
11273 24 29
11142 28 6
11095 32 -17
11017 37 -40
10794 41 -62
10542 44 -82
10383 48 -103
10369 52 -124
10367 57 -146
10377 62 -167
10378 66 -189
10379 71 -211
10389 76 -233
10400 81 -255
10406 87 -277
10424 92 -299
10423 97 -320
10419 102 -342
10431 108 -363
10436 113 -385
10443 119 -407
10461 124 -429
10460 130 -450
10466 136 -472
10461 141 -493
10465 147 -515
10478 153 -537
10469 159 -558
10491 165 -580
10504 172 -602
10507 178 -624
10507 184 -645
10525 191 -667
10519 197 -688
10536 204 -711
6943 138 -482
6916 142 -494
6889 146 -505.99997
6820 149 -514
6805 153 -527
6784 157 -539
6785 161 -552
6782 166 -565
6841 171 -584
6799 175 -593
6786 179 -605
10193 276 -930
10136 281 -944
10077 287 -958
10045 293 -975
9993 298 -989
9949 304 -1003.9999
9907 310 -1019.0001
9856 315 -1033
9811 321 -1047
9775 327 -1062
9729 332 -1075
9666 337 -1087
9626 343 -1100
9581 348 -1113
9559 355 -1129
9518 360 -1142
9461 365 -1153
9438 372 -1167
9389 377 -1179
9332 382 -1188
9277 387 -1199
9246 392 -1211
9237 399 -1227
9193 404 -1238
9156 410 -1250
7020 320 -971
6973 323 -977
6968 329 -988
6957 334 -999
6951 339 -1011.0001
6976 346 -1027
6958 350 -1036
6961 356 -1049
6983 363 -1065
7025 371 -1083
7106 381 -1108
7101 387 -1119
7101 393 -1132
7092 398 -1143
7082 404 -1153
7014 406 -1154
6974 409 -1159
6955 414 -1167
6943 419 -1177
6909 423 -1182
6875 427 -1188
6849 431 -1195
6828 435 -1202
6800 439 -1208
6779 444 -1215
6771 449 -1225
6769 455 -1235
6765 461 -1245
6743 465 -1252
6724 470 -1259
6715 475 -1268
6714 481 -1278
6722 487 -1290
6719 493 -1300
6722 499 -1310
6733 505 -1323
6736 512 -1333
6737 518 -1344
6730 523 -1352
6739 530 -1364
6737 535 -1373
6741 542 -1384
6726 546 -1391
6710 551 -1397
6687 555 -1402
6675 560 -1409
6649 564 -1413
6627 568 -1417
6611 572 -1423
6608 578 -1432
6618 585 -1442
6607 589 -1449
6596 594 -1455
6576 598 -1460
6564 603 -1466
6554 608 -1473
6543 613 -1479
6520 617 -1482
6512 621 -1488
6497 626 -1493
6476 630 -1497
6458 634 -1501
6447 638 -1506
6440 643 -1513
6426 647 -1517
6393 650 -1517
6392 655 -1525
6371 659 -1527
6357 663 -1531
6340 667 -1535
6334 672 -1541
6329 677 -1546
6318 681 -1551
6294 684 -1552
6279 688 -1555
6270 692 -1560
6262 697 -1565
6242 700 -1567
6229 704 -1570
6218 708 -1574
6202 711 -1576
6200 716 -1582
6176 719 -1582
6176 724 -1589
6162 728 -1591
6142 731 -1592
6145 736 -1599
6129 739 -1600
6114 743 -1603
6098 746 -1604
6089 750 -1607
6082 754 -1611
6079 759 -1616
6080 764 -1621
6078 769 -1626
6077 773 -1631
6075 778 -1636
6077 783 -1642
6067 787 -1644
6074 793 -1651
6075 798 -1656
6077 803 -1661
6075 807 -1665
6067 811 -1668
6069 816 -1673
6077 822 -1680
6070 825 -1682
6076 831 -1688
6069 835 -1691
6067 839 -1694
6067 844 -1699
6067 848 -1703
6065 853 -1706
6058 856 -1708
6062 861 -1713
6062 866 -1717
6065 871 -1721
6058 874 -1723
6060 879 -1727
6057 883 -1730
6049 886 -1731
6059 892 -1737
6049 894 -1738
6056 900 -1742
6054 904 -1745
6054 908 -1748
6051 911 -1750
6054 916 -1754
6057 921 -1757
6046 923 -1757
6056 929 -1763
6049 931 -1763
6043 934 -1764
6042 938 -1766
6045 943 -1769
6051 947 -1773
6045 950 -1774
6036 952 -1773
6049 958 -1779
6055 963 -1783
6036 964 -1779
6039 968 -1781
6035 971 -1782
6038 975 -1784
6045 979 -1788
6037 982 -1787
6043 986 -1790
6049 990 -1793
6042 993 -1793
6033 994 -1791
6034 998 -1792
6035 1001.0001 -1794
6039 1005 -1796
6034 1008 -1795
6044 1011.9999 -1799
6034 1014.0001 -1797
6036 1016.9999 -1798
6039 1021 -1799
6040 1024 -1800
6045 1028 -1802
6046 1031 -1802
6038 1032 -1800
6043 1036 -1802
6035 1037 -1799
6049 1043 -1803
6032 1042 -1798
6035 1045 -1799
6038 1049 -1800
6038 1051 -1799
6040 1054 -1800
6041 1057 -1800
6034 1058 -1797
6037 1061 -1797
6034 1063 -1795
6035 1065 -1795
6034 1067 -1794
6038 1070 -1794
6033 1071 -1792
6032 1073 -1790
6034 1076 -1790
6039 1079 -1790
6040 1081 -1789
6039 1083 -1787
6033 1084 -1784
6031 1085 -1782
6037 1088 -1782
6042 1091 -1782
6044 1093 -1780
6039 1093 -1777
6042 1095 -1776
6039 1096 -1773
6034 1097 -1770
6041 1100 -1770
6037 1100 -1766
6037 1102 -1764
6034 1103 -1761
6045 1106 -1762
6038 1106 -1757
6036 1107 -1754
6031 1107 -1750
6051 1112 -1753
6035 1110 -1745
6032 1111 -1742
6046 1114 -1743
6042 1114 -1738
6044 1115 -1736
6049 1117 -1734
6045 1117 -1730
6054 1120 -1729
6036 1117 -1721
6050 1120 -1721
6051 1121 -1718
6042 1120 -1712
6051 1122 -1711
6044 1121 -1705
6042 1121 -1701
6059 1124 -1702
6041 1121 -1693
6054 1124 -1692
6052 1123 -1687
6051 1123 -1683
6049 1123 -1678
6057 1125 -1676
6060 1125 -1673
6051 1123 -1666
6047 1122 -1660
6056 1124 -1658
6063 1125 -1655
6061 1124 -1650
6058 1123 -1645
6053 1122 -1638
6058 1122 -1635
6066 1123 -1632
6059 1121 -1625
6057 1121 -1619
6064 1121 -1616
6073 1122 -1613
6078 1122 -1609
6089 1123 -1607
6113 1127 -1608
6116 1127 -1603
6124 1127 -1600
6144 1130 -1599
6153 1130 -1596
6164 1131 -1593
6201 1137 -1597
6257 1146 -1605
6297 1151 -1609
6336 1157 -1613
6369 1162 -1615
6428 1171 -1624
6478 1178 -1630
6513 1183 -1632
6522 1183 -1628
6538 1184 -1625
6545 1184 -1620
6560 1184 -1617
6563 1183 -1610
6575 1183 -1606
6601 1186 -1606
6597 1183 -1597
6620 1185 -1596
6633 1185 -1591
6650 1185 -1588
6661 1185 -1583
6673 1184 -1578
6691 1185 -1575
6711 1186 -1572
6716 1184 -1566
6736 1185 -1562
6754 1185 -1559
6758 1183 -1551
6790 1186 -1551
6800 1185 -1545
6818 1185 -1540
6830 1183 -1535
6858 1185 -1533
6870 1184 -1527
6882 1183 -1521
6893 1181 -1515
6931 1184 -1515
6936 1181 -1507
6938 1178 -1499
6954 1177 -1494
6977 1177 -1489
7002 1178 -1486
7004 1174 -1477
7026 1174 -1473
7051 1174 -1468
7072 1173 -1463
7100 1173 -1460
7119 1172 -1454
7133 1170 -1448
7151 1169 -1442
7168 1167 -1435
7195 1167 -1431
7219 1166 -1426
7238 1164 -1420
7260 1163 -1414
7279 1161 -1408
7303 1160 -1403
7324 1158 -1396
7344 1156 -1390
7362 1154 -1383
7376 1151 -1375
7404 1150 -1370
7438 1150 -1366
7448 1146 -1357
7474 1144 -1351
7491 1141 -1344
7514 1139 -1337
7541 1137 -1331
7569 1135 -1325
7604 1134 -1320
7616 1130 -1311
7632 1126 -1303
7658 1123 -1296
7689 1122 -1290
7721 1120 -1284
7726 1114 -1274
7785 1116 -1272
7803 1112 -1263
7812 1107 -1253
7821 1101 -1243
7848 1098 -1236
7881 1095 -1229
7909 1092 -1222
7955 1091 -1217
7975 1086 -1208
7979 1079 -1196
7963 1070 -1182
7968 1063 -1171
7952 1053 -1156
7943 1044 -1143
7927 1034 -1128
7922 1026 -1115
7915 1016.9999 -1103
7912 1008.9999 -1090
7931 1003 -1080
7952 998 -1071
7981 993 -1063
8050 993 -1060
8035 983 -1046
8062.0005 978 -1037
8081.0005 972 -1026
9392 1119 -1179
9416 1112 -1167
9470 1108 -1159
9521 1104 -1151
9551 1096 -1139
9595 1091 -1129
9619 1083 -1117
9663 1077 -1107
9707 1070 -1097
9738 1063 -1086
9770 1055 -1074
9817 1049 -1064
9841 1040 -1051
9875 1032 -1040
9922 1025 -1029
9956 1016.9999 -1016.9999
9997 1008.9999 -1005
10024 999 -992
10058 990 -980
10124 985 -971
10169 977 -959
10189 966 -945
10227 957 -933
10258 947 -920
10287 937 -906
10343 929 -895
10404 921 -884
10440 911 -871
10497 902 -859
6866 581 -551
6800 566 -536
6751 554 -521
6821 550 -516
6882 546 -510
6910 539 -501
6933 531 -492
10490 790 -729
10488 776 -712
10482 761 -696
10484 747 -680
10489 733 -664
10471 717 -647
10466 702 -631
10466 687 -615
10452 672 -598
10456 657 -582
10449 642 -565
10439 626 -549
10450 612 -534
10442 596 -518
10437 581 -501.99997
10427 565 -485
10425 550 -469
10430 535 -454
10439 520 -439
10421 504 -422
10412 488 -406
10409 472 -391
10422 458 -376
10400 441 -360
10395 425 -344
10399 410 -329
10396 394 -314
10387 378 -298
10385 362 -283
10385 346 -268
10388 330 -252.99998
10374 313 -237
10385 298 -223
10361 281 -207
10366 265 -192
10364 248 -177
10359 232 -162
10356 215 -148
10367 199 -133
10384 183 -118
10407 167 -104
10587 153 -91
10751 137 -77
10881 121 -62
11022 105 -48
11078 88 -33
11107 70 -17
11180 52 -2
11239 34 12
11288 16 28
11344 -2 43
11387 -21 59
11441 -40 75
11508 -59 91
11565 -78 107
11625 -98 123
11650 -118 139
11731 -139 155
11784 -159 172
11799 -179 187
11813 -199 203
11796 -219 218
11805 -239 234
11804 -259 249
11797 -279 264
11790 -299 279
11783 -319 294
11794 -340 309
11808 -360 324
11815 -381 340
11728 -398 352
0 0 0
11930 -446 387
14547 -569 490
14555 -594 508.00003
14587 -621 527
14656 -650 547
14628 -673 564
14595 -697 580
14566 -721 596
14562 -746 613
14559 -772 630
14602 -800 649
14635 -827 667
14666 -854 686
14668 -880 703
14699 -907 721
14719 -935 739
14754 -963 757
14794 -992 776
14827 -1020 794
14875 -1049 813
14899 -1077 831
14923 -1105 848
14970 -1136 867
14997 -1164 885
15038 -1194 904
15067 -1223 921
15106 -1252 940
15164 -1284 959
15192 -1314 977
15237 -1344 996
15267 -1374 1013
15313 -1406 1033
15356 -1437 1051
15397 -1468 1069
15433 -1499 1087
15469 -1530 1105
15519 -1563 1124
15544 -1593 1141
15604 -1626 1160
15624 -1656 1177
15659 -1688 1195
15707 -1721 1213
15723 -1750 1229
15772 -1784 1248
15819 -1817 1266
15858 -1850 1284
15972 -1891 1307
16120.001 -1937 1334
16112 -1965 1348
16150.999 -1998 1365
16434 -2062 1404
18035 -2294 1556
18147 -2341 1581
18205 -2380 1602
18216 -2414 1618
18383 -2468 1649
18437 -2507 1669
18602 -2562 1699
18596 -2594 1714
18596 -2627 1729
18577 -2656 1742
18518 -2680 1751
18467 -2704 1761
18457 -2735 1774
18449 -2765 1787
18439 -2795 1800
18408 -2822 1811
18399 -2852 1823
18457 -2893 1843
18437 -2921 1854
18429 -2951 1866
18371 -2973 1874
18327 -2997 1882
18313 -3026 1894
18328 -3060 1908
18311 -3088 1918
18279 -3113 1927
18270 -3142 1939
18327 -3183 1957
18309 -3210 1967
18283 -3236 1975
18273 -3265 1986
18267 -3294 1996
18265 -3324 2007.9999
18227 -3347 2014
18228 -3377 2025.0001
18219 -3405 2035.0001
18211 -3433 2045.0001
18199 -3461 2054
18170 -3484 2061
18178 -3516 2072
18142 -3538 2078
18133 -3565 2087
18118 -3591 2095
18109 -3618 2104
18100 -3645 2112
18072 -3667 2118
18043 -3690 2124
18043 -3718 2133
18069 -3752 2145
18049 -3776 2151
18027 -3799 2157
17985 -3818 2160
17996 -3848 2170
17965 -3869 2174
17971 -3898 2183
17960 -3923 2189
17957 -3948 2196
17933 -3970 2201
17939 -3998 2209
17958 -4028.9998 2219
17969 -4058 2227
18003 -4092 2238
18027 -4124 2248
18057 -4157 2258
18158 -4206 2278
18365 -4280 2310
18598 -4361 2346
18852 -4448 2384
19053 -4522 2416
19120 -4565 2431
19151 -4599 2441
19173 -4631 2450
19170 -4656 2455
19163 -4682 2460
19174 -4711 2467
19151 -4731 2470
19143 -4755 2474
19129 -4777 2477
19124 -4801 2481
19104 -4822 2483
19059 -4835 2483
19066 -4862 2488
19035 -4879 2488
19043 -4905 2493
19021 -4923 2495
19016 -4946 2498
19006 -4967 2501
18983 -4985 2501
18974 -5006 2503
18961 -5025 2505
18937 -5042 2505
18910 -5057 2504
18930 -5085 2510
18945 -5111 2515
18943 -5133 2517
18910 -5146 2515
18894 -5163 2516
18889 -5184 2517
18886 -5205 2519
18808 -5204 2511
18848 -5236 2518
18862 -5260 2522
18876 -5285 2525
18818 -5289 2519
18796 -5303 2517
18810 -5327 2520
18837 -5354 2525
18802 -5363 2521
18771 -5373 2518
18790 -5398 2521
18814 -5423 2525
18815 -5442 2525
18810 -5459 2525
18779 -5468 2521
18818 -5497 2526
18727 -5489 2514
18724 -5505 2513
18688 -5511 2508
18714 -5536 2511
18715 -5553 2511
18630 -5544 2499
18698 -5581 2507
18664 -5587 2501
18648 -5598 2498
18636 -5610 2495
18577 -5607 2486
18629 -5638 2491
18633 -5654 2491
18619 -5664 2487
18552 -5658 2476
18623 -5694 2484
18636 -5712 2484
18559 -5702 2471
18584 -5723 2472
18668 -5762 2481
18599 -5754 2469
18558 -5754 2462
18573 -5771 2461
18536 -5772 2453
18530 -5782 2449
18552 -5800 2449
18557 -5813 2447
18526 -5815 2440
18511 -5821 2434
18529 -5838 2432
18529 -5848 2429
18501 -5850 2422
18429 -5837 2408
18449 -5853 2408
18451 -5863 2403
18452 -5873 2400
18417 -5870 2391
18479 -5899 2395
18475 -5906 2390
18460 -5910 2383
18440 -5911 2376
18465 -5927 2375
18441 -5927 2367
18450 -5937 2363
18458 -5947 2359
18441 -5948 2351
18465 -5963 2349
18452 -5965 2342
18430 -5964 2334
18443 -5974 2330
18443 -5979 2324
18443 -5985 2318
18429 -5985 2311
18433 -5991 2305
18429 -5994 2299
18433 -6000 2293
18431 -6003 2287
18438 -6009 2281
18435 -6012 2274
18436 -6016 2268
18445 -6022 2263
18435 -6021 2255
18432 -6023 2248
18437 -6027 2241
18438 -6029 2234
18438 -6031 2227
18432 -6030 2219
18436 -6033 2212
18429 -6031 2204
18416 -6028 2195
18414 -6028 2188
18420 -6030 2181
18389 -6020 2170
18419 -6029 2165
18418 -6029 2157
18413 -6026 2149
18414 -6025 2141
18397 -6019 2130
18377 -6010 2120
18323 -5991 2106
18285 -5976 2093
18268 -5968 2083
18229 -5953 2070
18170 -5931 2055
18140 -5918 2043
18078 -5895 2027
17970 -5856 2006
17882 -5824 1988
17720 -5767 1961
17577 -5716 1937
17458 -5673 1915
17331 -5627 1893
17243 -5594 1874
17152 -5559 1856
17130 -5547 1844
17081 -5525 1831
17075 -5518 1821
17055 -5506 1810
16995 -5480 1795
17011 -5479 1788
17022 -5476 1780
17014 -5467 1770
17022 -5462 1761
17029 -5457 1753
17040 -5453 1745
17061 -5452 1738
17050 -5440 1727
17051 -5432 1718
17063 -5427 1709
17065 -5419 1700
17066 -5411 1691
17064 -5401 1681
17084 -5398 1674
17070 -5384 1662
17077 -5376 1653
17087 -5369 1644
17083 -5357 1634
17082 -5346 1624
17088 -5338 1614
17101 -5331 1606
17103 -5320 1596
17103 -5309 1585
17106 -5298 1575
17089 -5280 1563
17096 -5270 1554
17115 -5264 1546
17118 -5252 1535
17129 -5243 1526
17123 -5228 1515
17130 -5217 1506
17129 -5203 1495
17120 -5186 1483
17120 -5173 1473
17151 -5168 1465
17144 -5151 1454
17144 -5137 1444
17146 -5122 1433
17137 -5105 1422
17146 -5092 1412
17151 -5078 1401
17159 -5064 1391
17162 -5049 1381
17179 -5038 1371
17176 -5021 1360
17198 -5011 1351
17209 -4998 1341
17216 -4982 1330
17244 -4973 1322
17198 -4942 1307
17239 -4937 1299
17242 -4919 1289
13770 -3914 1020
13775 -3901 1011.9999
13789 -3890 1003.9999
13747 -3863 992
13701 -3835 980
13690 -3817 971
13662 -3794 960
13555 -3748 943
13512 -3721 932
13460 -3691 919
13428 -3666 908
13414 -3647 899
13408 -3629 890
13398 -3610 880
13384 -3590 871
13373 -3571 861
13398 -3561 854
13393 -3543 846
13357 -3516 835
13312 -3487 823
13268 -3459 812
13241 -3435 802
13234 -3415 793
13221 -3395 784
13208 -3374 774
13184 -3350 765
13189 -3333 756
13158 -3307 746
13147 -3286 737
13139 -3266 728
13121 -3243 719
13112 -3222 710
13094 -3199 701
13063 -3173 691
13050 -3151 682
13035 -3129 673
13012 -3104 664
13000 -3082 655
12984 -3060 646
12959 -3034 637
12953 -3013 629
12942 -2992 620
12918 -2966 611
12893 -2941 602
12876 -2917 593
12856 -2893 584
12846 -2870 576
12833 -2847 567
12808 -2822 559
12799 -2799 551
12766 -2772 542
12752 -2748 533
12748 -2727 526
12730 -2702 517
12709 -2677 509
12686 -2651 501
12676 -2629 493
12639 -2600 484
12634 -2578 477
12625 -2555 469
12594 -2528 461
12573 -2502 453
12557 -2478 445
12539 -2454 438
12506 -2426 429
12490 -2400 422
12474 -2376 415
12459 -2352 407
12430 -2324 400
12424 -2301 393
12396 -2274 385
12393 -2252 379
12374 -2226 371
12353 -2200 364
12316 -2172 357
12313 -2149 350
12298 -2124 343
12258 -2095 336
12243 -2069 329
12223 -2043 323
12216 -2020 317
12192 -1994 310
12162 -1966 303
12154 -1943 297
12138 -1917 291
12115 -1891 285
12078 -1862 278
12065 -1837 272
12039 -1810 266
12038 -1787 260
12008 -1760 254.00002
11970 -1732 248
11922 -1702 242
11920 -1678 237
11898 -1652 231
11876 -1627 226
11872 -1603 221
11848 -1576 215
11834 -1552 210
11764 -1520 204
11746 -1494 199
11764 -1473 195
11743 -1448 190
11740 -1424 185
11703 -1396 180
11691 -1372 176
11664 -1345 171
11686 -1324 167
11676 -1299 163
11646 -1273 158
11654 -1250 154
11649 -1226 150
11600 -1197 146
11596 -1173 142
11554 -1146 138
11583 -1125 134
11575 -1100 131
11555 -1075 127.00001
11543 -1050 123
11524 -1024 120
11517 -1000 116
11506 -976 113
11504 -951 110
11506 -928 107
11485 -902 104
11473 -877 101
11462 -853 98
11467 -829 95
11452 -804 92
11437 -779 89
11445 -756 87
11423 -730 84
11428 -706 82
11414 -681 79
11368 -655 77
11381 -632 75
11364 -607 73
11384 -584 71
11391 -560 69
11368 -535 67
11366 -510.99997 65
11367 -487 63
