# .PCD v0.7 - Point Cloud Data file format
VERSION 0.7
FIELDS x y z
SIZE 4 4 4
TYPE F F F
COUNT 1 1 1
WIDTH 3035
HEIGHT 1
VIEWPOINT 0 0 0 1 0 0 0
POINTS 3035
DATA ascii
6893 -64 -1772
6894 -62 -1782
6900 -60 -1793
6905 -58 -1805
6899 -56 -1813
6899 -54 -1823
6909 -52 -1835
6916 -49 -1847
6924 -47 -1859
6923 -45 -1868
6928 -43 -1879
6924 -41 -1887
6932 -38 -1899
6929 -36 -1907
6926 -34 -1915
6912 -31 -1920
6902 -29 -1926
6877 -27 -1928
6855 -24 -1931
6855 -22 -1940
6807 -19 -1935
6815 -17 -1945
6802 -14 -1950
6777 -12 -1951
6743 -9 -1949
6747 -7 -1958
6720 -5 -1959
6705 -2 -1962
6706 0 -1970
6694 2 -1974
6667 4 -1974
6660 7 -1979
6674 10 -1991
6626 12 -1983
6638 15 -1994
6615 17 -1995
6599 19 -1996
6602 22 -2004
6586 24 -2006
6562 27 -2005.0001
6545 29 -2007
6554 32 -2016
6543 34 -2019
6527 37 -2020.9999
6510 40 -2022.0001
6512 42 -2028.0001
6488 45 -2027
6483 47 -2032.0001
6468 50 -2033
6473 53 -2040
6460 55 -2040.9999
6457 58 -2046
6445 60 -2048
6442 63 -2052
6418 65 -2050
6426 68 -2057
6419 71 -2061
6417 73 -2065
6419 76 -2070
6410 78 -2072
6396 81 -2073
6380 83 -2072
6369 86 -2073
6370 88 -2078
6373 91 -2083
6367 94 -2085
6341 96 -2081
6330 99 -2081
6338 101 -2088
6327 104 -2088
6327 107 -2092
6326 109 -2096
6332 112 -2101
6301 114 -2095
6307 117 -2100
6289 119 -2097
6291 122 -2101
6289 125 -2104
6283 127.00001 -2105
6288 130 -2109
6263 132 -2104
6278 135 -2112
6273 137 -2113
6248 140 -2107
6264 143 -2115
6252 145 -2113
6233 147 -2109
6253 150 -2118
6230 152 -2113
6248 155 -2121
6233 158 -2118
6227 160 -2118
6235 163 -2122
6217 165 -2118
6230 168 -2124
6221 170 -2122
6220 173 -2123
6213 175 -2122
6227 178 -2128
6218 181 -2126
6220 183 -2128
6221 186 -2130
6202 188 -2124
6199 190 -2124
6205 193 -2126
6205 196 -2127
6210 198 -2129
6212 201 -2130
6207 203 -2129
6210 205 -2130
6201 208 -2127
6210 210 -2130
6205 213 -2129
6209 215 -2130
6204 218 -2128
6202 220 -2127
6211 223 -2130
6200 225 -2126
6206 227 -2127
6229 231 -2134
6202 232 -2124
6205 235 -2124
6200 237 -2122
6214 240 -2125
6218 242 -2126
6236 245 -2131
6223 247 -2125
6228 250 -2125
6216 250.99998 -2120
6235 254.00002 -2125
6230 256 -2121
6232 259 -2121
6251 262 -2125
6215 263 -2111
6246 266 -2119
6238 268 -2115
6263 271 -2121
6251 273 -2114
6257 275 -2114
6262 278 -2114
6257 280 -2109
6263 282 -2109
6274 285 -2110
6294 288 -2113
6287 290 -2108
6295 292 -2108
6288 294 -2102
6290 296 -2100
6307 299 -2102
6297 300 -2096
6311 303 -2097
6333 306 -2100
6326 308 -2094
6330 310 -2092
6320 311 -2085
6327 314 -2083
6325 316 -2079
6317 317 -2072
6330 319 -2072
6325 321 -2066
6316 322 -2059
6320 325 -2056
6315 326 -2050
6323 328 -2048
6328 330 -2045.0001
6323 332 -2038.0001
6314 333 -2030.9999
6314 334 -2026
6316 336 -2022.0001
6319 338 -2017
6314 339 -2010.9999
6318 341 -2006
6330 343 -2005.0001
6322 345 -1997
6315 346 -1989
6317 347 -1984
6317 349 -1979
6322 350 -1975
6319 352 -1968
6330 354 -1965
6331 355 -1959
6322 356 -1951
6330 358 -1947
6330 359 -1941
6341 361 -1938
6345 363 -1933
6353 364 -1929
6359 366 -1924
6357 367 -1917
6361 369 -1911
6372 370 -1908
6390 373 -1906
6393 374 -1900
6405 376 -1897
6403 377 -1889
6431 379 -1890
6424 380 -1880
6447 382 -1880
6462 384 -1877
6461 385 -1869
6458 386 -1860
6487 388 -1861
6491 390 -1854
6495 391 -1848
6512 392 -1844
6536 395 -1843
6550 396 -1838
6560 398 -1833
6573 399 -1828
6595 401 -1826
6594 402 -1817
6603 403 -1811
6624 404 -1808
6646 406 -1805
6656 408 -1799
6686 410 -1798
6679 410 -1787
6701 411 -1784
6713 413 -1778
6710 413 -1768
6705 413 -1757
6696 412 -1745
6702 413 -1737
6702 413 -1728
6703 413 -1718
6695 413 -1706
6692 413 -1696
6685 413 -1684
6684 413 -1674
6680 412 -1663
6673 412 -1651
6677 412 -1642
6683 412 -1634
6707 413 -1630
6728 415 -1624
6762 416 -1622
6764 416 -1612
6792 418 -1608
6809 418 -1602
6806 418 -1590
6808 417 -1580
6813 417 -1570
6810 417 -1558
6797 415 -1544
6787 414 -1531
6796 414 -1522
6785 413 -1509
6785 412 -1497
6767 410 -1482
6789 410 -1476
6773 409 -1461
6771 408 -1449
6768 407 -1437
6768 406 -1426
6768 405 -1414
6748 402 -1399
6756 402 -1389
6748 400 -1376
6738 398 -1362
6743 397 -1351
6738 396 -1339
6734 394 -1326
6726 392 -1312
6729 391 -1301
6726 390 -1289
6730 389 -1278
6715 386 -1263
6723 385 -1252
6758 385 -1247
6769 384 -1236
6766 382 -1224
6784 382 -1215
6799 381 -1205
6832 381 -1199
6869 381 -1193
6899 381 -1185
6933 380 -1178
6976 381 -1173
7020 381 -1167
7059 381 -1160
7089 380 -1152
7091 378 -1140
7078 375 -1124
7028 370 -1103
6985 365 -1083
6970 362 -1068
6956 359 -1053
6960 356 -1040
6961 354 -1027
6955 351 -1013
6947 348 -999
6940 345 -985
6958 343 -974
6942 339 -958
6945 336 -945
6943 333 -932
6941 330 -918
6956 328 -907
6944 324 -891
7086 328 -896
0 0 0
9466 429 -1161
9493 426 -1145
9532 423 -1132
9581 420 -1119
9615 417 -1104
9652 414 -1089
9709 411 -1077
9762 409 -1064
9822 406 -1051
9857 402 -1035
9915 399 -1021.9999
9965 396 -1007
10001 392 -991
10050 388 -977
10093 384 -961
10160 381 -947
10201 376 -931
6748 245 -603
6787 242 -593
6791 238 -580
6794 234 -567
6772 229 -552
6800 226 -540
6832 223 -529
6854 219 -517
6886 216 -505.99997
6924 212 -495
6948 208 -483
10516 309 -711
10509 301 -689
10509 294 -669
10503 287 -647
10497 279 -626
10495 272 -605
10483 264 -584
10480 257 -563
10485 249 -542
10467 241 -521
10467 233 -500
10437 225 -478
10447 217 -458
10440 209 -437
10427 201 -416
10420 193 -395
10417 185 -374
10417 176 -353
10423 168 -333
10409 160 -312
10396 151 -291
10389 142 -271
10401 134 -250
10388 125 -230
10386 117 -210
10370 108 -189
10367 99 -169
10359 90 -148
10387 82 -129
10400 73 -108
10592 65 -90
10807 57 -71
11031 48 -51
11075 38 -29
11139 29 -8
11234 19 12
11306 9 34
11381 -1 56
11471 -12 79
11566 -22 102
11628 -33 125
11728 -45 149
11797 -56 172
11794 -67 195
11788 -78 217
11784 -90 239
11784 -102 262
11777 -113 284
11791 -125 307
11821 -137 330
11879 -149 354
11917 -161 377
14608 -213 490
14625 -228 518
14526 -241 542
14513 -256 568
14500 -270 594
14478 -285 621
14447 -299 645
14425 -314 671
14406 -328 697
14386 -343 723
14394 -359 749
14385 -374 775
14402 -389 802
14427 -406 830
14429 -422 857
14526 -440 888
14534 -456 915
14613 -474 946
14660 -492 976
14641 -508.00003 1001.0001
14732 -528 1034
14934 -552 1075
15115 -575 1114
15142 -593 1143
15195 -612 1174
15230 -631 1203
15286 -651 1234
15362 -671 1267
15429 -692 1299
15475 -712 1330
18233 -859 1598
18414 -889 1645
18637 -921 1697
18694 -945 1734
18694 -967 1766
18683 -989 1797
18693 -1011.0001 1829
18699 -1033 1861
18704 -1055 1893
18734 -1079 1927
18739 -1102 1959
18785 -1127 1994
18756 -1147 2022.0001
18740 -1168 2050
18768 -1192 2084
18720 -1211 2109
18745 -1235 2142
18766 -1259 2174
18768 -1283 2205
18802 -1307 2239
18807 -1331 2269
18818 -1354 2300
18804 -1376 2328
18811 -1399 2358
18811 -1422 2388
18814 -1445 2417
18813 -1468 2446
18937 -1500 2490
15674 -1261 2085
15638 -1278 2104
15619 -1295 2125
15603 -1313 2146
15580 -1330 2167
15559 -1348 2187
15543 -1366 2208
15519 -1383 2227
15519 -1402 2250
15536 -1423 2275
15518 -1440 2295
15477 -1456 2311
15433 -1471 2326
15503 -1497 2359
15613 -1526 2398
23525 -2329 3646
16010 -1605 2504
15923 -1616 2512
15900 -1633 2530
15842 -1647 2543
15833 -1666 2563
15833 -1686 2585
15755 -1697 2593
15749 -1716 2613
15704 -1731 2626
15899 -1772 2680
15793 -1780 2683
28215 -3215 4830
28215 -3249 4866
28210 -3284 4901
28183 -3316 4932
28201 -3353 4971
28230 -3391 5012
28219 -3425 5045
28209 -3458 5078
28216 -3493 5113
28220 -3529 5148
28236 -3565 5185
28237 -3600 5220
28286 -3641 5262
28313 -3680 5300
28511 -3741 5371
28598 -3786 5420
28369 -3791 5409
28184 -3800 5407
28081 -3820 5418
28014 -3845 5436
27958 -3871 5456
27917 -3900 5479
27920 -3934 5510
28034 -3983 5563
0 0 0
0 0 0
0 0 0
29938 -4396 6067
0 0 0
0 0 0
0 0 0
0 0 0
0 0 0
0 0 0
0 0 0
0 0 0
0 0 0
0 0 0
0 0 0
43614 -7019 9350
43633 -7071 9394
43657 -7123 9438
43703 -7181 9487
43655 -7223 9515
28868 -4809 6317
28888 -4845 6346
43625 -7365 9621
43653 -7418 9665
43620 -7462 9694
0 0 0
0 0 0
0 0 0
0 0 0
0 0 0
43597 -7743 9895
49398 -8827 11249
49400 -8880 11286
49382 -8930 11318
49375 -8980 11351
49378 -9032 11388
49369 -9081 11419
49341 -9128 11446
49186 -9150 11444
49012 -9168 11436
49020 -9220 11470
49029 -9271 11504
49001 -9315 11528
49001 -9365 11559
30320 -5825 7171
48990 -9460 11616
48969 -9505 11640
48997 -9558 11675
0 0 0
48973 -9649 11726
48978 -9697 11754
48971 -9741 11778
48944 -9783 11797
48973 -9834 11830
28736 -5797 6956
28782 -5833 6981
28762 -5855 6990
30135 -6162 7338
48927 -10050 11936
48973 -10102 11970
0 0 0
29433 -6123 7219
29297 -6121 7198
29450 -6178 7247
29349 -6182 7234
0 0 0
29306 -6222 7246
48911 -10425 12111
30128 -6446 7470
48927 -10509 12149
48918 -10546 12162
48884 -10578 12169
48863 -10612 12180
0 0 0
48898 -10695 12216
48905 -10735 12231
48916 -10775 12246
48902 -10807 12255
48888 -10842 12263
48898 -10879 12277
48929 -10920 12296
48884 -10945 12295
48928 -10989 12315
49004 -11040 12343
48881 -11046 12321
0 0 0
0 0 0
48905 -11151 12349
48966 -11197 12371
48887 -11210 12358
48870 -11237 12359
29296 -6755 7411
48838 -11292 12359
48891 -11334 12376
48910 -11367 12385
48865 -11386 12376
48924 -11428 12393
48879 -11446 12382
48925 -11483 12396
48940 -11515 12399
49024 -11560 12421
48962 -11572 12405
49034 -11615 12422
48984 -11627 12408
49005 -11658 12410
48885 -11654 12377
48906 -11681 12380
48932 -11711 12382
48909 -11728 12372
48921 -11752 12371
48872 -11763 12353
48988 -11812 12376
48840 -11797 12332
48957 -11846 12355
48972 -11869 12351
48879 -11865 12320
48963 -11904 12333
48952 -11919 12322
48914 -11928 12303
48964 -11958 12305
48966 -11975 12295
48981 -11995 12287
48942 -12000 12267
48990 -12027 12266
49026 -12051 12263
48986 -12056 12239
48973 -12067 12222
49033 -12094 12224
48988 -12095 12198
48959 -12102 12175
49019 -12128 12175
48990 -12132 12151
49015 -12147 12142
49031 -12162 12128
49021 -12170 12107
49083 -12194 12105
0 0 0
0 0 0
0 0 0
0 0 0
0 0 0
0 0 0
0 0 0
0 0 0
0 0 0
0 0 0
0 0 0
0 0 0
0 0 0
0 0 0
0 0 0
0 0 0
0 0 0
0 0 0
0 0 0
0 0 0
0 0 0
0 0 0
0 0 0
0 0 0
0 0 0
0 0 0
0 0 0
0 0 0
0 0 0
0 0 0
45568 -11337 10496
45607 -11338 10476
45631 -11336 10450
45618 -11325 10415
45575 -11305 10373
27531 -6823 6247
27410 -6787 6200
27470 -6796 6194
27371 -6765 6151
27178 -6710 6087
26997 -6658 6026
27082 -6672 6025
26985 -6640 5983
26976 -6630 5960
26979 -6623 5939
26969 -6612 5915
26938 -6595 5887
26952 -6589 5868
26888 -6564 5833
26835 -6542 5799
26870 -6540 5784
26827 -6519 5752
0 0 0
0 0 0
30502 -7375 6464
30364 -7329 6408
0 0 0
30395 -7309 6361
30394 -7295 6333
30430 -7289 6314
27156 -6492 5610
27113 -6468 5576
28672 -6826 5871
28729 -6825 5856
28648 -6791 5813
0 0 0
0 0 0
26483 -6234 5299
26432 -6207 5263
26402 -6185 5231
26376 -6163 5201
26369 -6145 5173
26361 -6127 5146
26359 -6110 5119
26368 -6095 5095
26382 -6082 5071
26384 -6065 5044
26394 -6049 5019
26410 -6035 4995
26414 -6017 4968
26430 -6003 4945
26454 -5989 4921
26470 -5974 4897
26498 -5961 4874
26501 -5942 4846
26523 -5927 4822
26545 -5911 4798
26572 -5897 4775
26578 -5878 4747
26583 -5858 4719
26568 -5833 4688
26548 -5807 4655
26529 -5781 4623
26518 -5756 4591
26497 -5729 4558
26497 -5706 4529
24810 -5321 4213
24830 -5304 4188
24825 -5281 4159
24784 -5250 4124
24902 -5252 4115
24833 -5215 4076.0002
24834 -5192 4047.9998
24827 -5167 4019
24831 -5144 3991
24801 -5114 3958
24760 -5082 3923
24517 -5009 3856
24112 -4901 3764
23872 -4829 3699
23673 -4764 3640
23513 -4708 3588
23190 -4620 3512
23106 -4579 3471
22856 -4505 3407
22622 -4435 3345
22452 -4378 3293
22330 -4330 3248
19742 -3807 2848
19688 -3775 2817
19778 -3770 2807
19745 -3741 2778
19737 -3718 2754
19759 -3699 2733
19783 -3681 2712
19783 -3658 2688
19788 -3636 2664
19779 -3611 2639
19278 -3497 2549
18619 -3355 2439
18424 -3298 2391
18353 -3263 2359
18300 -3231 2331
18320 -3212 2311
18313 -3188 2287
18333 -3168 2267
18343 -3147 2246
18353 -3125 2225
18338 -3099 2201
18311 -3071 2175
18347 -3054 2157
18415 -3042 2142
18455 -3024 2124
18440 -2997 2100
18438 -2972 2077
18473 -2953 2058
18444 -2924 2032.0001
18394 -2891 2004
18414 -2869 1983
18442 -2848 1964
18456 -2824 1943
18467 -2800 1921
18461 -2773 1897
18476 -2750 1877
18478 -2724 1854
18548 -2708 1838
18575 -2685 1818
18587 -2660 1796
18601 -2635 1774
18610 -2609 1752
18615 -2582 1730
18535 -2544 1700
18343 -2491 1660
18213 -2446 1626
18135 -2408 1597
18028 -2367 1565
17972 -2332 1539
17796 -2282 1502
16273.001 -2062 1353
16160.999 -2023 1324
16118.999 -1992 1301
16129 -1968 1282
15905 -1916 1245
15801 -1879 1218
15776 -1851 1197
15740 -1822 1176
15698 -1792 1154
15664 -1763 1133
15634 -1735 1112
15585 -1704 1089
15534 -1673 1068
15485 -1643 1046
15454 -1614 1025
15438 -1587 1006.0001
15371 -1554 983
15343 -1526 963
15329 -1499 944
15272 -1468 923
15270 -1442 905
15246 -1414 886
15202 -1384 866
15173 -1356 846
15117 -1325 826
15101 -1298 808
15078 -1270 789
15064 -1243 771
15037 -1215 752
15007 -1186 734
14971 -1157 715
14955 -1130 698
14921 -1102 679
14896 -1073 661
14838 -1042 642
14818 -1015 624
14795 -987 607
14761 -958 589
14749 -931 573
14721 -903 556
14691 -875 538
14662 -846 521
14585 -815 503.00003
11936 -645 398
11893 -622 384
11875 -599 371
11840 -575 357
11831 -553 345
11814 -531 332
11808 -509 319
11791 -486 306
11790 -464 294
11793 -443 282
11807 -421 270
11806 -399 258
11809 -377 246
11811 -354 234
11807 -332 222
11806 -309 210
11811 -287 199
11810 -265 187
11768 -241 175
11717 -218 163
11648 -195 151
11636 -172 139
11603 -149 128
11558 -127.00001 116
11546 -105 105
11501 -82 94
11454 -60 83
11403 -37 72
11378 -15 61
11349 6 51
11306 28 40
11274 49 30
11235 71 20
11206 93 9
11181 115 0
11144 137 -9
11117 158 -19
11081 179 -28
11011 200 -38
10972 220 -47
10937 241 -56
10863 261 -64
10732 279 -73
10703 299 -81
10563 316 -89
10467 333 -96
10397 352 -104
10362 371 -112
10361 391 -120
10352 412 -128
10355 432 -136
10350 453 -144
10336 473 -152
10336 493 -160
10349 515 -168
10359 536 -176
10355 556 -183
10344 576 -190
10351 597 -198
10359 618 -206
10355 638 -213
10351 659 -220
10350 680 -227
10344 700 -234
10352 721 -241
10349 742 -248
10347 762 -255
10350 783 -262
10354 803 -269
10363 825 -276
10371 846 -282
10383 868 -289
10408 891 -296
10433 913 -303
10445 935 -310
10457 957 -317
10468 979 -323
10490 1002 -330
10515 1025 -337
10522 1047 -343
10548 1070 -350
10553 1092 -356
10575 1115 -363
10586 1137 -369
10615 1160 -375
10624 1182 -381
10645 1206 -387
10660 1228 -393
10665 1250 -399
10681 1273 -405
10701 1296 -411
10729 1321 -417
10739 1343 -423
10754 1366 -428
10766 1389 -434
10798 1414 -440
10799 1435 -445
10825 1460 -451
10837 1482 -456
10860 1507 -462
10871 1529 -467
10879 1551 -471
10899 1575 -477
10911 1598 -481
10923 1620 -486
10945 1644 -491
10960 1668 -496
10983 1692 -501
11001 1715 -505.99997
11012 1738 -510
11040 1764 -515
11059 1787 -520
11064 1809 -524
11071 1831 -528
11093 1855 -532
11115 1880 -537
11127 1903 -541
11151 1928 -545
11160 1950 -549
11171 1972 -553
11196 1997 -557
11216 2020.9999 -561
11221 2043 -564
11228 2065 -568
11255 2090 -572
11257 2111 -574
11270 2134 -578
11297 2159 -582
11311 2182 -585
11308 2202 -588
11350 2230 -592
11333 2247 -593
11360 2273 -597
11358 2293 -599
11358 2313 -601
11340 2329 -602
11327 2346 -603
11324 2365 -605
11315 2383 -607
11310 2401 -608
11316 2422 -610
11288 2436 -610
11268 2450 -610
11277 2471 -612
11284 2492 -614
11294 2514 -616
11282 2530 -617
11275 2547 -617
11276 2566 -618
11269 2583 -619
11254 2598 -619
11265 2619 -621
11255 2635 -621
11258 2654 -622
11266 2674 -623
11233 2684 -622
11233 2702 -622
11260 2726 -624
11266 2745 -625
11266 2763 -625
11255 2778 -625
11252 2795 -625
11213 2802 -623
11214 2820 -623
11221 2838 -624
11229 2857 -624
11229 2874 -624
11253 2897 -625
11232 2908 -624
11219 2922 -623
11188 2930 -621
11239 2959 -623
11234 2975 -622
11254 2996 -623
11257 3013 -623
11237 3024 -621
11240 3040 -620
11262 3062 -621
11251 3074 -620
11261 3093 -619
11271 3111 -619
11269 3125 -618
11259 3138 -616
11274 3157 -616
11235 3161 -613
11270 3185 -614
11255 3195 -611
11294 3221 -612
11292 3235 -611
11289 3249 -609
11294 3265 -608
11295 3278 -607
11301 3294 -605
11295 3306 -603
11314 3326 -603
11312 3339 -601
11329 3357 -600
11329 3370 -598
11342 3388 -597
11346 3402 -595
11360 3419 -594
11321 3420 -590
11346 3440 -589
11350 3454 -587
11384 3477 -587
11371 3485 -584
11381 3500 -582
11399 3518 -581
11407 3532 -579
11392 3539 -576
11413 3557 -575
11415 3570 -572
11423 3584 -570
11436 3599 -568
11449 3614 -566
11437 3621 -563
11464 3640 -561
11465 3651 -559
11461 3660 -556
11456 3669 -553
11454 3679 -550
11475 3695 -548
11496 3712 -546
11517 3729 -544
11543 3747 -542
11518 3748 -538
11545 3766 -536
11570 3783 -534
11565 3791 -531
11583 3806 -528
11581 3814 -525
11590 3826 -522
11620 3844 -520
11627 3855 -517
11612 3858 -513
11636 3874 -510
11632 3880 -505.99997
11668 3900 -504
11681 3912 -501
11685 3920 -498
11694 3931 -495
11689 3936 -491
11711 3950 -488
11711 3957 -484
11713 3964 -481
11723 3974 -477
11727 3982 -474
11741 3993 -470
11752 4001.9998 -467
11759 4010.0002 -463
11782 4024.0002 -460
11774 4026 -456
11788 4037.0002 -452
11791 4043.0002 -448
11806 4053 -445
11819 4061.9998 -441
11829 4070.0002 -437
11844 4080 -434
11852 4087 -430
11860 4093 -426
11865 4099 -422
11885 4110 -418
11891 4116 -414
11904 4123 -410
11908 4128 -406
11920 4135 -402
11931 4142 -398
11947 4150 -394
11950 4154 -390
11960 4160 -386
11977 4168 -382
11987 4174 -378
11991 4177 -373
12021 4189 -369
12030 4194 -365
12034 4196 -361
12050 4203 -357
12061 4208 -352
12081 4216 -348
12098 4223 -344
12103 4225 -339
12115 4229 -334
12126 4234 -330
12155 4243 -326
12162 4246 -321
12173 4249 -317
12197 4257 -312
12196 4256 -307
12228 4266 -304
12237 4268 -299
12257 4274 -295
12260 4273 -290
12274 4276 -285
12288 4280 -281
12300 4282 -276
12316 4285 -271
12337 4290 -267
12350 4292 -262
12373 4297 -257
12394 4301 -252.99998
12389 4297 -247
12409 4300 -243
12452 4312 -239
12456 4309 -234
12475 4312 -229
12496 4315 -224
12496 4311 -219
12514 4313 -214
12506 4306 -209
12509 4302 -204
12504 4295 -199
12510 4292 -193
12505 4285 -188
12509 4281 -183
12509 4275 -178
12510 4270 -173
12495 4259 -167
12492 4251 -162
12482 4242 -157
12464 4229 -151
12474 4226 -146
12463 4215 -141
12446 4203 -136
12433 4191 -130
12434 4184 -126
12427 4174 -120
12425 4166 -115
12410 4153 -110
12412 4146 -105
12394 4131 -100
12382 4119 -95
12366 4105 -90
12375 4099 -84
12346 4080.9998 -79
12346 4072 -74
12336 4059 -69
12335 4048.9998 -64
12319 4034.9998 -59
12308 4021.9998 -54
12296 4008 -49
12272 3990 -44
12261 3976 -39
12278 3972 -34
12252 3953 -29
12236 3937 -24
12227 3923 -20
12220 3910 -15
12219 3899 -10
12195 3880 -5
12192 3867 0
12162 3846 3
12177 3839 8
12159 3822 13
12146 3806 17
12153 3796 22
12125 3775 26
12109 3758 31
12099 3742 35
12101 3730 40
12077 3710 44
12067 3694 49
12046 3675 53
12047 3662 57
12032 3644 62
12023 3627 66
12010 3610 70
11997 3592 75
11982 3574 79
11958 3553 83
11966 3541 87
11938 3519 91
11935 3504 95
11923 3485 99
11909 3467 103
11892 3447 107
11879 3428 111
11875 3412 115
11865 3394 118
11838 3371 122
11846 3358 126
11816 3334 130
11809 3316 133
11792 3296 137
11776 3276 140
11757 3255 144
11731 3231 147
11734 3216 151
11729 3199 154
11722 3180 157
11689 3155 160
11671 3134 164
11665 3115 167
11656 3096 170
11630 3072 173
11626 3054 176
11608 3032 179
11596 3012 182
11590 2993 185
11571 2971 188
11550 2949 190
11550 2931 193
11533 2909 196
11548 2895 199
11525 2872 202
11528 2854 204
11529 2836 207
11531 2819 210
11529 2800 212
11614 2802 217
11673 2798 220
11752 2798 224
11789 2788 227
11842 2781 231
11853 2764 234
11919 2760 237
11954 2748 240
11970 2732 243
12058 2732 247
12087 2718 250
12130 2708 252
12154 2692 255
12147 2670 257
12165 2653 259
12157 2631 261
12185 2616 264
12191 2596 265
12182 2573 267
12187 2553 269
12180 2530 270
12197 2512 272
12191 2489 273
12207 2470 275
12197 2447 276
12209 2427 278
12214 2406 279
12216 2384 280
12212 2361 281
12235 2343 283
12215 2317 283
12237 2299 285
12237 2276 286
12227 2251 286
12230 2229 287
12225 2206 287
12231 2184 288
12238 2163 289
12237 2139 289
12242 2117 290
12231 2092 290
12238 2069 290
12238 2046 290
12235 2023 290
12232 1998 290
12227 1974 290
12235 1952 290
12231 1928 290
12243 1906 290
12222 1879 289
12225 1855 288
12233 1832 288
12236 1809 287
12232 1784 287
12236 1761 286
12239 1737 285
12233 1712 284
12194 1682 282
12219 1661 282
12185 1632 280
12198 1610 279
12196 1585 278
12167 1557 276
12124 1527 273
12135 1504 272
12119 1477 270
12113 1452 268
12094 1426 266
12089 1401 264
12109 1378 262
12100 1353 260
12073 1326 257
12080 1302 255
12046 1274 252.99998
12012 1246 250
12035 1223 248
11989 1194 244
11983 1169 241
11976 1143 239
11987 1120 236
11950 1092 233
11974 1069 230
11929 1041 226
11942 1018 224
11939 992 220
11931 967 217
11936 943 214
11885 914 210
11864 888 206
11869 864 202
11832 836 198
11785 808 194
11823 786 191
11815 760 187
11815 736 183
11799 710 178
11799 686 174
11756 659 170
11755 634 165
11729 608 161
11720 584 156
11702 558 152
11689 533 147
11672 508.00003 142
11659 483 137
11658 458 132
11629 433 127.00001
11621 408 122
11585 383 117
11607 360 112
11551 334 106
11548 310 101
11539 285 96
11501 260 90
11467 236 85
11452 212 79
11428 188 73
11416 164 68
11387 140 62
11376 116 56
11343 92 50
11325 69 44
11317 45 38
11292 22 32
11276 0 26
11233 -24 20
11210 -47 14
11189 -70 8
11192 -93 1
11161 -116 -4
11137 -138 -10
11112 -160 -17
11074 -183 -23
10996 -204 -30
10984 -227 -36
10919 -248 -43
10833 -268 -49
10775 -289 -56
10722 -309 -62
10633 -328 -68
10539 -346 -74
10454 -365 -81
10426 -385 -87
10417 -406 -94
10412 -427 -101
10398 -447 -108
10401 -468 -115
10408 -489 -122
10406 -510 -129
10413 -531 -136
10412 -552 -144
10402 -572 -151
10381 -592 -158
10389 -613 -166
10383 -633 -173
10370 -653 -180
10350 -672 -188
10343 -692 -195
10345 -713 -203
10328 -731 -210
10318 -751 -218
10312 -771 -226
10296 -789 -233
10294 -809 -241
10293 -829 -249
10271 -847 -257
10269 -867 -265
10250 -885 -272
10245 -904 -280
10236 -923 -288
10232 -941 -296
10220 -960 -304
10215 -979 -313
10214 -997 -321
10221 -1016.9999 -330
10219 -1036 -338
10231 -1056 -347
10228 -1075 -355
10230 -1094 -364
10240 -1114 -373
10243 -1133 -382
10256 -1154 -391
10250 -1171 -400
10253 -1191 -409
10262 -1210 -418
10261 -1228 -427
10262 -1248 -436
10270 -1267 -445
10279 -1286 -455
10284 -1305 -464
10280 -1323 -473
10287 -1342 -483
10294 -1361 -492
10300 -1380 -501.99997
10296 -1398 -510.99997
10303 -1416 -520
10305 -1434 -530
10313 -1453 -540
10315 -1471 -550
10322 -1490 -560
10315 -1507 -569
10325 -1526 -579
10331 -1544 -589
10340 -1563 -599
10346 -1581 -609
10340 -1597 -618
10350 -1616 -629
10354 -1634 -639
7012 -1118 -439
7009 -1128 -445
6984 -1136 -450
6976 -1146 -457
6932 -1150 -460
6925 -1159 -466
6917 -1169 -472
6898 -1177 -478
6887 -1186 -484
6895 -1198 -491
6845 -1200 -494
6867 -1215 -501.99997
6858 -1224 -508.00003
6851 -1233 -514
6846 -1243 -521
6862 -1256 -529
6858 -1266 -535
6849 -1274 -541
6857 -1286 -548
6850 -1295 -554
6857 -1306 -562
6865 -1318 -569
10287 -1990 -863
10267 -2000.9999 -871
10249 -2012.0001 -880
10222 -2020.9999 -888
10201 -2032.0001 -896
10171 -2040 -903
10142 -2048 -911
10115 -2057 -918
10087 -2065 -926
10061 -2073 -933
10039 -2082 -941
10005 -2089 -947
9989 -2099 -956
9963 -2107 -963
9933 -2113 -970
9914 -2122 -978
9875 -2127 -983
9848 -2134 -990
9826 -2141 -998
9805 -2149 -1005
9780 -2156 -1011.9999
9765 -2165 -1020
9747 -2173 -1028
9718 -2178 -1034
9699 -2186 -1042
9676 -2192 -1048
9645 -2197 -1054
9617 -2201 -1060
9583 -2205 -1066
9570 -2213 -1074
9544 -2218 -1080
9512 -2221 -1085
9497 -2228 -1093
9473 -2233 -1099
9449 -2238 -1105
9437 -2246 -1113
9415 -2250 -1119
9399 -2257 -1126
9388 -2264 -1133
9368 -2269 -1140
9345 -2273 -1146
9319 -2276 -1151
9306 -2283 -1159
9285 -2287 -1164
9263 -2290 -1170
9252 -2297 -1177
9219 -2298 -1182
9196 -2301 -1187
9157 -2300 -1191
9134 -2303 -1196
9121 -2308 -1203
9120 -2316 -1210
9112 -2322 -1218
9102 -2327 -1225
9092 -2333 -1232
9047 -2329 -1233
9036 -2334 -1240
9015 -2336 -1245
8994 -2338 -1250
8968 -2339 -1254
8955 -2343 -1260
8938 -2345 -1265
8927 -2350 -1271
8904 -2350 -1276
8883 -2351 -1280
8874 -2356 -1287
8867 -2360 -1293
8838 -2359 -1296
8815 -2359 -1300
8812 -2365 -1307
8795 -2366 -1312
8774 -2366 -1316
8755 -2367 -1321
8736 -2367 -1325
8727 -2371 -1330
8707 -2371 -1334
8694 -2373 -1339
8680 -2374 -1344
8658 -2373 -1348
8650 -2376 -1353
8639 -2378 -1358
8625 -2379 -1362
8615 -2381 -1368
8592 -2379 -1370
8571 -2378 -1373
8563 -2380 -1379
8554 -2382 -1383
8530 -2379 -1386
8519 -2380 -1390
8504 -2380 -1394
8485 -2378 -1397
8475 -2379 -1401
8459 -2378 -1405
8449 -2378 -1409
8438 -2379 -1413
8439 -2382 -1419
8417 -2379 -1421
8407 -2379 -1425
8392 -2378 -1428
8382 -2378 -1432
8365 -2376 -1435
8361 -2377 -1440
8345 -2375 -1442
8331 -2374 -1445
8330 -2376 -1450
8316 -2374 -1453
8300 -2371 -1455
8295 -2372 -1459
8285 -2371 -1462
8259 -2365 -1463
8251 -2364 -1466
8243 -2364 -1470
8233 -2362 -1473
8231 -2363 -1477
8218 -2360 -1479
8210 -2359 -1482
8197 -2356 -1484
8193 -2356 -1488
8184 -2354 -1491
8179 -2354 -1494
8172 -2352 -1497
8158 -2349 -1498
8135.9995 -2343 -1499
8137 -2343 -1503
8146 -2346 -1509
8121.0005 -2339 -1508
8116 -2338 -1511
8114.0005 -2337 -1514
8109.9995 -2335 -1517
8083 -2327 -1516
8086.0005 -2328 -1520
8073 -2323 -1521
8071.9995 -2323 -1524
8068 -2321 -1527
8064.9995 -2319 -1529
8061 -2317 -1532
8049 -2312 -1533
8029.9995 -2306 -1532
8041.0005 -2308 -1537
8035 -2305 -1539
8019 -2299 -1539
7983 -2287 -1535
8007 -2293 -1542
7983 -2284 -1540
7996 -2286 -1545
7984 -2281 -1545
7972 -2275 -1546
7959 -2269 -1546
7942 -2263 -1544
7925 -2256 -1543
7946 -2259 -1550
7945 -2256 -1552
7938 -2252 -1553
7928 -2247 -1552
7939 -2247 -1556
7946 -2246 -1560
7954 -2245 -1563
7946 -2240 -1563
7939 -2235 -1563
7942 -2233 -1566
7933 -2227 -1565
7936 -2224 -1567
7939 -2222 -1569
7937 -2218 -1570
7931 -2213 -1570
7924 -2207 -1570
7929 -2204 -1572
7927 -2200 -1573
7926 -2196 -1573
7941 -2196 -1577
7921 -2186 -1574
7921 -2182 -1575
7924 -2178 -1576
7923 -2173 -1577
7928 -2170 -1578
7924 -2165 -1578
7935 -2163 -1580
7917 -2153 -1577
7921 -2149 -1578
7922 -2145 -1579
7932 -2142 -1581
7936 -2138 -1582
7907 -2125 -1576
7923 -2124 -1579
7922 -2119 -1578
7921 -2113 -1578
7920 -2107 -1578
7925 -2103 -1578
7922 -2096 -1577
7927 -2092 -1577
7935 -2088 -1578
7937 -2082 -1578
7913 -2070 -1573
7924 -2067 -1574
7935 -2063 -1575
7921 -2053 -1571
7931 -2050 -1572
7925 -2042 -1570
7928 -2036 -1569
7924 -2028.0001 -1567
7931 -2023 -1567
7936 -2017.9999 -1567
7942 -2012.0001 -1566
7927 -2002.0001 -1562
7926 -1995 -1560
7929 -1988 -1559
7930 -1981 -1557
7946 -1978 -1558
7934 -1968 -1554
7936 -1961 -1553
7918 -1949 -1547
7922 -1943 -1546
7969 -1946 -1553
7975 -1940 -1551
7992 -1936 -1552
7990 -1928 -1549
7992 -1920 -1547
7998 -1914 -1546
7994 -1905 -1542
8003.0005 -1899 -1541
8008.0005 -1892 -1539
8008.0005 -1883 -1536
8012.9995 -1876 -1534
8029.0005 -1871 -1534
7996 -1855 -1525
8060.0005 -1862 -1534
8060.0005 -1853 -1530
8064.9995 -1845 -1528
8082 -1840 -1527
8082 -1831 -1523
8097 -1825 -1523
8097.9995 -1817 -1519
8111 -1811 -1518
8130.9995 -1806 -1518
8125 -1795 -1513
8142.9995 -1790 -1512
8140.0005 -1780 -1507
8152.0005 -1773 -1505
8185.0005 -1770 -1507
8172 -1758 -1500
8175.9995 -1749 -1496
8191 -1742 -1494
8202 -1735 -1492
8214 -1728 -1489
8226 -1720 -1487
8239 -1713 -1484
8238 -1702 -1479
8246 -1694 -1476
8260 -1687 -1473
8280 -1680 -1471
8285 -1671 -1467
8294 -1662 -1463
8311 -1655 -1460
8323 -1647 -1457
8334 -1638 -1453
8337 -1628 -1448
8356 -1621 -1445
8370 -1613 -1442
8371 -1602 -1436
8396 -1597 -1434
8400 -1586 -1429
8409 -1577 -1424
8436 -1571 -1422
8459 -1563 -1420
8486 -1557 -1418
8506 -1549 -1415
8508 -1538 -1408
8511 -1527 -1401
8503 -1514 -1393
8525 -1507 -1390
8554 -1500 -1388
8568 -1491 -1383
8589 -1483 -1379
8608 -1474 -1375
8622 -1465 -1370
8639 -1456 -1365
8659 -1447 -1360
8683 -1439 -1356
8702 -1430 -1351
8709 -1419 -1344
8746 -1412 -1342
8760 -1402 -1336
8763 -1391 -1328
8775 -1380 -1322
8799 -1371 -1317
8835 -1364 -1314
8840 -1352 -1306
8865 -1344 -1301
8890 -1335 -1296
8894 -1323 -1288
8914 -1313 -1282
8928 -1302 -1275
8962 -1294 -1271
8989 -1285 -1265
9015 -1276 -1259
9045 -1267 -1254
9061 -1256 -1247
9076 -1245 -1239
9107 -1236 -1233
9129 -1225 -1226
9152 -1215 -1219
9172 -1204 -1212
9192 -1193 -1204
9216 -1183 -1197
9250 -1174 -1191
9266 -1162 -1182
9293 -1152 -1175
9335 -1143 -1169
9342 -1130 -1160
9377 -1121 -1153
9409 -1111 -1146
9426 -1099 -1137
9466 -1090 -1130
9486 -1078 -1121
9522 -1068 -1114
9542 -1056 -1105
9558 -1044 -1095
9576 -1032 -1085
9612 -1021 -1077
9653 -1011.0001 -1070
9686 -1001.0001 -1061
9708 -988 -1051
9765 -980 -1045
9778 -967 -1034
9817 -956 -1025
9849 -944 -1016.0001
9890 -934 -1007
9897 -920 -994
9938 -909 -985
9967 -897 -975
10012 -886 -966
10031 -873 -954
10074 -862 -945
10128 -852 -936
10164 -840 -925
10187 -827 -913
10240 -816 -904
6828 -534 -593
6824 -524 -583
6813 -513 -573
6830 -504 -564
6813 -493 -553
6819 -483 -544
6810 -473 -533
6821 -463 -524
6826 -454 -515
6854 -446 -507.00003
6876 -437 -499
6903 -429 -490
6942 -422 -483
6961 -413 -474
6994 -405 -466
10559 -596 -688
10558 -581 -672
10568 -567 -657
10566 -551 -640
10545 -535 -623
10552 -520 -607
10533 -505 -590
10533 -490 -573
10534 -475 -557
10521 -459 -540
10521 -445 -524
10515 -430 -507.00003
10511 -415 -490
10500 -400 -473
10493 -385 -456
10486 -370 -438
10489 -355 -422
10473 -340 -404
10463 -326 -387
10467 -312 -370
10457 -297 -353
10455 -283 -336
10431 -268 -318
10437 -254.00002 -301
10426 -240 -284
10420 -225 -266
10411 -211 -249
10406 -198 -232
10406 -184 -215
10396 -170 -197
10380 -155 -179
10387 -142 -162
10383 -128 -144
10389 -115 -127.00001
10386 -102 -109
10471 -89 -92
10706 -77 -76
10879 -64 -59
11047 -51 -41
11088 -37 -22
11157 -23 -3
11250 -9 16
11325 4 35
11378 18 55
11456 32 76
11507 47 96
11595 62 117
11678 77 138
11767 92 160
11782 106 181
11786 121 202
11781 135 223
11770 149 243
11761 162 264
11758 177 285
11786 191 306
11807 205 328
11879 220 351
11859 234 372
14623 305 485
14724 324 514
14816 343 544
14934 363 576
15076 383 608
15170 403 640
15250 422 670
15315 441 701
15455 462 735
15580 483 770
15686 503.00003 803
15788 523 837
15928 545 874
16066 567 910
16118 586 943
16229 607 979
16401 631 1019.0001
16568 655 1060
16672 676 1097
16787 698 1135
16942 722 1177
17082 745 1218
17233 769 1261
17406 794 1305
17579 820 1350
17604 838 1385
17578 855 1415
17571 872 1448
17595 890 1482
17601 907 1515
17595 924 1547
17585 940 1578
17562 955 1609
17560 971 1641
17564 988 1673
17570 1003.9999 1707
17566 1020 1739
17574 1036 1771
17558 1051 1802
17574 1067 1836
17571 1083 1868
17555 1097 1899
17566 1113 1932
17556 1127 1963
17547 1141 1995
17685 1165 2043
17513 1168 2055
17568 1187 2094
19439 1329 2352
22706 1571 2789
22735 1591 2835
22759 1611 2879
22747 1628 2920
22738 1645 2960
22733 1662 3000
22734 1680 3042
22731 1697 3083
22731 1714 3124
22734 1731 3165
22728 1747 3206
22727 1763 3247
22725 1779 3288
22735 1796 3330
22808 1818 3382
23029 1852 3455
23213 1883 3525
23245 1901 3572
23283 1920 3620
23766 1975 3737
24372 2042 3876
24430 2063 3928
28852 2454 4691
28817 2470 4737
28826 2489 4788
28805 2505 4835
28792 2521 4884
28764 2536 4930
28769 2554 4982
28747 2569 5028
28826 2593 5092
28938 2619 5163
28904 2633 5207
28844 2643 5246
29415 2712 5401
29506 2736 5468
29579 2759 5533
29651 2781 5596
29784 2810 5672
29772 2823 5720
28694 2735 5562
28431 2724 5559
28422 2737 5605
28398 2749 5648
28392 2761 5694
28374 2773 5737
28367 2785 5783
28363 2798 5829
28317 2806 5865
28346 2821 5918
28329 2831 5961
28313 2842 6004
28302 2852 6047
44435 4497 9567
44407 4512 9631
44410 4530 9702
44386 4544 9768
44468 4569 9857
44841 4624 10010
45281 4685 10178
45680 4744 10340
45708 4762 10418
45866 4793 10525
46094 4833 10649
46151 4853 10732
46210 4876 10816
46174 4886 10879
46194 4902 10953
48061 5114 11469
48048 5127 11538
48000 5134 11596
47975 5145 11661
28191 3031 6893
28170 3036 6929
28199 3046 6978
28152 3048 7006
47893 5197 11988
47864 5205 12050
47850 5214 12114
47814 5221 12172
47804 5230 12236
47806 5240 12304
47772 5246 12361
47751 5253 12422
47718 5258 12479
47713 5265 12542
47695 5272 12601
47654 5275 12654
47637 5281 12713
47635 5288 12775
47626 5294 12834
47600 5298 12889
47571 5301 12942
47562 5306 13000
47530 5307 13053
47524 5311 13111
47514 5316 13168
47497 5319 13223
47465 5319 13272
47440 5320 13323
47446 5325 13382
47432 5326 13435
47417 5328 13486
47387 5327 13533
47383 5329 13588
47360 5329 13636
47349 5329 13687
47337 5330 13738
47320 5330 13785
47303 5329 13833
47292 5328 13882
47277 5326 13929
47267 5326 13975
47266 5325 14025
47236 5321 14066
47208 5317 14107
47219 5317 14159
47202 5314 14202
47199 5312 14248
47182 5308 14290
47157 5303 14328
47160 5300 14375
47145 5296 14416
47136 5293 14458
47110 5285 14494
47113 5283 14537
47121 5279 14582
47077 5270 14611
47070 5264 14651
47062 5259 14689
47043 5252 14723
47047 5247 14764
47034 5241 14798
47044 5236 14839
47008 5226 14866
46991 5217 14898
46994 5211 14936
46960 5201 14961
46961 5194 14997
46962 5186 15032
46963 5178 15066
46930 5168 15089
46944 5161 15127
46944 5154 15159
46913 5141 15180
46910 5132 15211
46892 5121 15236
46894 5111 15266
46887 5101 15293
46875 5089 15318
46883 5080 15349
46856 5066 15368
46865 5057 15398
46850 5045 15418
46824 5032 15435
46846 5023 15467
46834 5010 15487
46838 4998 15512
46830 4985 15532
46818 4971 15551
46806 4957 15568
46821 4947 15594
46801 4932 15608
46804 4919 15629
46796 4905 15645
46796 4891 15664
46789 4878 15679
46777 4862 15692
46792 4851 15713
46775 4834 15723
46774 4818 15739
46777 4803 15755
46773 4789 15766
46765 4772 15777
46774 4758 15793
46756 4740 15799
46775 4726 15816
46763 4708 15823
46765 4692 15834
46758 4676 15840
46748 4658 15845
46747 4641 15853
46749 4624 15861
46758 4608 15870
46742 4589 15871
46751 4572 15879
46757 4556 15885
46753 4537 15888
46755 4519 15892
46736 4500 15888
46742 4480 15892
46746 4463 15894
46775 4448 15905
46779 4428 15907
46750 4407 15895
46763 4388 15899
46749 4367 15892
46780 4350 15900
46753 4329 15887
46767 4310 15888
46761 4288 15881
46785 4270 15884
46767 4247 15872
46780 4229 15869
46783 4208 15863
46773 4186 15851
46798 4167 15851
46789 4145 15838
46782 4123 15826
46802 4102 15823
46811 4083.0002 15814
46819 4060 15805
46815 4037.0002 15791
46806 4014.9998 15774
46819 3994 15765
46834 3972 15755
46836 3951 15741
46839 3928 15726
46854 3906 15714
46856 3883 15697
46871 3862 15684
46871 3837 15666
46894 3817 15654
46875 3791 15628
46890 3769 15612
46901 3746 15594
46914 3722 15577
46910 3699 15553
46910 3675 15530
46906 3650 15504
46921 3626 15485
46950 3605 15469
46941 3580 15440
46962 3558 15421
46971 3532 15397
46972 3508 15370
46990 3484 15347
46994 3459 15320
47007 3436 15293
47001 3409 15262
47021 3385 15237
47033 3361 15208
47054 3337 15183
47067 3312 15155
47061 3286 15119
47088 3262 15094
47069 3235 15052
47107 3212 15028
47108 3187 14993
47110 3160 14957
47147 3137 14931
47162 3111 14897
47160 3085 14858
47180 3060 14825
47180 3033 14785
47195 3009 14749
47219 2983 14715
47232 2957 14677
47259 2934 14644
47258 2907 14600
47272 2879 14562
47279 2854 14520
47296 2828 14480
47308 2802 14438
47313 2777 14394
47333 2751 14353
47344 2724 14309
47380 2699 14272
47390 2673 14226
47399 2646 14180
47404 2620 14132
47425 2594 14088
47431 2567 14038
47460 2543 13996
47468 2516 13946
47498 2490 13902
47502 2463 13849
47525 2437 13802
47525 2411 13748
47564 2386 13704
47572 2359 13650
47579 2332 13596
47593 2307 13544
47617 2280 13492
47634 2255 13440
47650 2229 13385
47666 2202 13331
47697 2176 13279
47723 2151 13226
47734 2124 13168
47746 2099 13110
47772 2073 13055
47782 2046.9999 12996
47820 2020.9999 12942
47817 1996 12879
47863 1971 12827
27972 1136 7458
28001 1122 7427
27986 1105 7385
28019 1091 7355
28039 1077 7321
28058 1063 7287
28071 1048 7250
28100 1033 7217
28137 1019.0001 7186
28167 1005 7153
48053 1690 12131
48109 1666 12077
28254 963 7051
28251 948 7008
28271 934 6969
28288 920 6931
28310 905 6893
28297 890 6846
48257 1493 11601
48248 1468 11524
48267 1443 11453
48316 1420 11389
48493 1401 11355
48300 1371 11232
48295 1346 11154
46711 1280 10714
47002 1264 10707
46958 1240 10618
46723 1211 10489
46731 1189 10416
28482 710 6301
28506 697 6259
28494 683 6209
28510 670 6165
30685 707 6583
30563 690 6505
30475 673 6434
30419 659 6371
30430 645 6321
30458 631 6274
30479 618 6225
30437 603 6163
30421 589 6106
30426 577 6054
30501 565 6015
30544 552 5969
23335 412 4519
23340 402 4478
23366 393 4441
23381 383 4401
23394 374 4362
0 0 0
0 0 0
28852 426 5221
28867 415 5170
28868 404 5116
28878 393 5065
28878 382 5011
27039 348 4641
27077 338 4597
27044 328 4541
26928 317 4471
26807 306 4400
26817 297 4349
26827 287 4301
26707 277 4231
26592 267 4162
26569 258 4107
26571 250 4056.0002
26547 241 4001
25986 227 3865
25708 217 3772
20153 164 2918
20127 158 2875
20096 152 2830
20150 146 2798
20128 140 2756
20138 135 2718
20079 129 2669
19619 121 2568
18619 110 2401
18364 104 2331
18290 99 2285
18282 94 2247
18290 90 2211
18277 86 2172
18235 82 2130
18226 77 2091
18232 74 2055
18253 70 2020
18256 66 1984
18260 63 1947
18262 59 1910
18263 56 1872
18273 53 1836
18276 50 1798
18275 47 1760
18266 44 1722
18250 41 1682
18238 39 1642
18219 36 1603
18158 34 1559
17957 31 1504
17749 29 1450
17553 26 1397
17394 24 1348
17237 22 1300
17077 21 1252
16944 19 1206
14751 15 1019.0001
14745 14 988
14660 13 950
14663 12 920
14663 12 889
14663 11 858
14698 10 828
14690 10 796
14683 10 765
14690 9 734
14696 9 703
14720 9 672
14737 9 642
14721 9 610
14756 10 580
14755 10 548
14707 10 515
11926 9 392
11857 9 365
11810 10 338
11781 11 312
11779 11 287
11786 12 261
11790 13 237
11794 14 211
11794 15 186
11698 16 159
11593 17 133
11518 19 108
11438 20 83
11345 21 58
11280 22 33
11195 24 9
11109 25 -14
11027 27 -37
10813 28 -60
10548 29 -81
10387 31 -102
10376 32 -124
10380 34 -146
10374 36 -168
10385 39 -190
10384 41 -212
10392 43 -235
10408 45 -257
10418 48 -280
10425 50 -302
10424 53 -324
10427 56 -346
10429 58 -368
10437 61 -390
10447 64 -413
10452 67 -435
10455 70 -457
10475 73 -480
10462 76 -501.99997
10478 80 -525
10493 83 -548
10505 86 -570
10514 90 -593
10513 93 -615
10521 97 -637
10533 101 -660
10527 104 -681
10535 108 -704
6950 74 -479
6924 76 -491
6925 79 -505.99997
6842 80 -514
6807 82 -525
6796 85 -538
6792 88 -552
6795 90 -566
6801 93 -580
6786 96 -593
6800 99 -608
10187 153 -932
10126 157 -947
10078 160 -963
10023 164 -978
9979 168 -993
9926 171 -1008
9875 175 -1023
9798 178 -1034
9770 182 -1051
9707 186 -1064
9686 190 -1080
9650 194 -1095
9603 198 -1109
9558 202 -1122
9519 206 -1136
9460 209 -1148
9424 214 -1162
9380 217 -1174
9327 221 -1186
9294 225 -1200
9274 230 -1215
9227 234 -1227
9166 237 -1236
9140 241 -1250
9101 245 -1261
9071 250 -1274
9026 254.00002 -1285
7346 211 -1060
7270 212 -1062
7277 217 -1077
7233 220 -1084
7196 223 -1091
7167 226 -1100
7122 229 -1106
7113 233 -1118
7101 237 -1129
7100 241 -1142
7095 245 -1154
7051 248 -1159
7005 250.99998 -1164
6957 254.00002 -1169
6908 256 -1173
6888 260 -1182
6856 263 -1188
6831 266 -1196
6796 269 -1202
6786 273 -1212
6787 278 -1224
6771 281 -1232
6755 285 -1241
6739 289 -1250
6722 293 -1258
6715 297 -1268
6725 302 -1282
6732 307 -1294
6724 311 -1304
6733 316 -1316
6735 321 -1328
6739 325 -1340
6743 330 -1352
6759 336 -1366
6757 340 -1376
6746 344 -1385
6766 350 -1400
6772 355 -1412
6769 360 -1422
6782 365 -1435
6771 369 -1444
6781 375 -1456
6780 379 -1466
6781 384 -1477
6782 389 -1488
6773 393 -1496
6788 399 -1509
6792 404 -1520
6798 409 -1532
6787 414 -1539
6803 419 -1552
6801 424 -1562
6803 429 -1572
6795 433 -1580
6765 436 -1582
6736 439 -1585
6678 440 -1580
6660 444 -1586
6653 448 -1593
6660 454 -1604
6660 459 -1613
6664 464 -1623
6670 469 -1633
6670 474 -1642
6668 479 -1650
6651 482 -1654
6614 484 -1654
6582 487 -1654
6550 489 -1655
6505 491 -1652
6482 494 -1653
6456 496 -1655
6410 498 -1651
6386 500 -1653
6362 503.00003 -1654
6321 504 -1651
6292 507.00003 -1650
6284 510 -1656
6280 515 -1662
6264 518 -1665
6271 523 -1674
6247 526 -1674
6250 531 -1682
6246 535 -1688
6238 538 -1693
6232 542 -1697
6227 546 -1703
6220 550 -1707
6216 554 -1713
6212 558 -1718
6207 562 -1723
6203 567 -1728
6197 570 -1732
6190 574 -1736
6178 577 -1739
6180 582 -1746
6171 585 -1749
6171 590 -1754
6161 593 -1757
6160 597 -1763
6154 601 -1766
6155 605 -1772
6141 608 -1773
6134 612 -1776
6130 616 -1780
6141 621 -1789
6120 623 -1787
6123 627 -1793
6111 630 -1795
6107 634 -1798
6098 637 -1800
6097 641 -1804
6087 644 -1806
6082 648 -1809
6089 652 -1815
6088 656 -1819
6084 660 -1822
6077 663 -1824
6066 666 -1825
6069 670 -1830
6058 673 -1830
6056 676 -1833
6057 680 -1837
6051 683 -1839
6049 687 -1842
6051 691 -1846
6056 695 -1851
6053 698 -1853
6050 702 -1855
6043 705 -1856
6048 709 -1861
6045 712 -1863
6045 716 -1865
6041 719 -1867
6044 723 -1871
6045 727 -1874
6039 729 -1874
6047 733 -1879
6045 737 -1881
6057 742 -1887
6042 743 -1884
6047 747 -1888
6044 750 -1889
6047 754 -1892
6038 756 -1891
6041 760 -1894
6033 762 -1893
6049 767 -1900
6039 769 -1898
6042 773 -1901
6038 775 -1901
6038 778 -1902
6037 781 -1903
6035 784 -1903
6036 787 -1905
6039 791 -1907
6029 792 -1904
6028 795 -1905
6031 798 -1907
6029 801 -1906
6032 804 -1908
6035 807 -1910
6044 811 -1913
6031 812 -1909
6034 815 -1910
6037 818 -1911
6032 820 -1910
6035 823 -1911
6035 826 -1910
6039 829 -1912
6027 830 -1908
6033 833 -1909
6042 837 -1912
6031 837 -1907
6034 840 -1908
6032 842 -1907
6032 844 -1906
6027 846 -1904
6031 849 -1904
6026 850 -1901
6031 853 -1902
6023 854 -1898
6033 858 -1900
6034 860 -1899
6029 861 -1896
6035 864 -1896
6029 865 -1893
6040 868 -1895
6035 869 -1892
6024 870 -1887
6037 873 -1889
6034 875 -1886
6028 875 -1882
6031 878 -1881
6029 879 -1878
6041 882 -1879
6038 883 -1876
6040 885 -1874
6038 886 -1871
6038 888 -1869
6038 889 -1866
6029 889 -1861
6039 892 -1860
6034 892 -1856
6046 896 -1857
6044 896 -1853
6034 896 -1847
6036 897 -1845
6044 900 -1844
6046 901 -1841
6046 902 -1838
6038 902 -1831
6035 902 -1827
6041 904 -1825
6043 905 -1822
6041 905 -1818
6035 905 -1812
6046 908 -1811
6042 908 -1806
6042 908 -1802
6047 910 -1799
6047 910 -1795
6039 909 -1788
6047 911 -1787
6050 912 -1783
6048 912 -1778
6058 914 -1776
6045 912 -1768
6039 911 -1761
6055 914 -1761
6046 913 -1753
6051 914 -1750
6041 912 -1742
6059 915 -1742
6065 916 -1739
6055 914 -1730
6062 915 -1727
6055 914 -1720
6059 914 -1715
6051 913 -1708
6062 914 -1705
6061 913 -1699
6063 913 -1694
6055 912 -1686
6065 913 -1683
6061 911 -1676
6067 912 -1671
6071 912 -1667
6058 909 -1657
6065 909 -1653
6071 910 -1648
6070 909 -1641
6077 909 -1637
6081 908 -1631
6076 907 -1624
6074 905 -1617
6072 904 -1609
6084 905 -1606
6115 908 -1607
6121 908 -1602
6138 909 -1599
6142 909 -1593
6161 910 -1591
6182 912 -1590
6219 916 -1592
6272 922 -1598
6330 929 -1605
6375 934 -1609
6423 939 -1613
6506 950 -1626
6548 954 -1628
6554 953 -1622
6576 954 -1619
6574 952 -1610
6590 952 -1606
6601 951 -1600
6620 952 -1596
6633 952 -1591
6655 952 -1587
6684 954 -1585
6679 951 -1575
6713 953 -1574
6715 951 -1566
6744 953 -1564
6763 953 -1559
6790 954 -1556
6796 952 -1548
6813 951 -1543
6830 951 -1537
6842 950 -1530
6857 949 -1524
6885 949 -1520
6906 949 -1515
6931 949 -1511
6947 948 -1505
6973 949 -1500
6987 947 -1493
7003 946 -1487
7026 945 -1481
7047 944 -1475
7060 943 -1468
7081 942 -1462
7103 941 -1456
7129 940 -1451
7143 938 -1443
7168 938 -1437
7175 934 -1428
7217 936 -1425
7250 936 -1421
7264 933 -1413
7283 931 -1405
7309 930 -1399
7340 929 -1394
7368 928 -1388
7394 927 -1381
7412 925 -1373
7435 923 -1366
7464 921 -1360
7475 918 -1350
7492 915 -1341
7531 914 -1336
7553 912 -1328
7585 910 -1322
7603 907 -1313
7626 904 -1305
7659 903 -1298
7709 903 -1294
7707 897 -1282
7740 895 -1275
7758 891 -1265
7806 891 -1260
7829 887 -1252
7857 884 -1243
7849 877 -1229
7651 849 -1186
7526 829 -1154
7482 818 -1135
7530 817 -1130
7602 819 -1128
7782 832 -1142
7803 828 -1132
7801 821 -1119
7817 816 -1108
7850 812 -1100
7881 808 -1091
7973 811 -1091
7943 801 -1073
7931 792 -1058
9067 898 -1195
9297 912 -1209
9345 908 -1200
9375 902 -1188
9400 896 -1175
9429 889 -1163
9480 885 -1153
9509 879 -1141
9551 873 -1130
9613 870 -1121
9636 862 -1107
6845 605 -775
6836 598 -762
6833 591 -750
6828 583 -738
6821 576 -726
6829 569 -715
6817 561 -703
6817 554 -691
6819 547 -679
6810 539 -667
6818 533 -656
6794 523 -643
6801 516 -632
6793 508.00003 -620
6791 501 -608
6786 493 -596
6772 484 -583
6768 476 -571
6810 472 -563
6773 461 -549
6786 454 -538
6816 449 -529
6848 443 -520
6854 435 -509
6914 431 -501
6931 424 -491
10494 629 -726
10496 617 -708
10495 604 -690
10487 591 -672
10484 578 -654
10482 564 -636
10474 551 -618
10471 538 -600
10463 525 -582
10462 510.99997 -565
10457 498 -547
10454 484 -529
10456 471 -512
10445 457 -494
10451 444 -477
10436 430 -459
10432 416 -441
10427 403 -424
10421 389 -407
10419 375 -390
10416 361 -372
10413 347 -355
10408 333 -338
10401 319 -320
10402 305 -303
10385 290 -286
10399 276 -269
10389 262 -252
10386 247 -235
10377 233 -218
10374 218 -201
10373 204 -184
10371 189 -167
10361 175 -151
10365 160 -134
10375 145 -118
10409 131 -101
10634 118 -86
10821 105 -71
10966 91 -55
11065 76 -38
11106 60 -21
11205 44 -3
11248 28 14
11303 12 31
11362 -4 49
11423 -21 67
11482 -38 85
11557 -56 103
11617 -73 122
11667 -91 140
11747 -109 159
11800 -128 178
11799 -146 196
11794 -164 214
11794 -182 231
11798 -200 249
11793 -218 267
11785 -235 284
11787 -252.99998 302
11805 -272 319
11852 -291 338
11846 -309 355
0 0 0
11927 -349 392
14412 -444 495
14429 -467 516
14442 -490 538
14522 -515 561
14559 -540 584
14535 -562 603
14561 -586 625
14624 -611 648
14621 -635 669
14606 -657 689
14574 -679 707
14544 -701 726
14552 -725 746
14583 -749 768
14596 -774 788
14643 -800 811
14695 -826 833
14722 -851 855
14763 -878 877
14800 -904 898
14832 -929 920
14863 -955 941
14905 -982 963
14942 -1008.9999 985
14975 -1035 1006.0001
15003 -1062 1027
15039 -1089 1049
15074 -1116 1071
15125 -1145 1094
15158 -1172 1115
15217 -1201 1138
15242 -1228 1159
15269 -1255 1180
15303 -1283 1202
15343 -1311 1223
15387 -1340 1245
15400 -1367 1265
15447 -1396 1287
15514 -1427 1311
15574 -1459 1335
15645 -1491 1359
15725 -1525 1385
15782 -1556 1408
15882 -1592 1435
15950 -1625 1459
16007 -1657 1483
16120.001 -1696 1512
16148.001 -1725 1532
16145 -1751 1550
16134.001 -1776 1567
16129 -1802 1584
18758 -2127 1862
18780 -2160 1885
18813 -2195 1909
18790 -2224 1927
18789 -2253 1946
18793 -2286 1966
18766 -2313 1983
18778 -2345 2004
18772 -2375 2022.0001
18758 -2404 2040
18755 -2434 2059
18743 -2463 2076
18741 -2493 2094
18726 -2522 2111
18687 -2547 2125
18643 -2571 2138
18681 -2606 2160
18658 -2634 2176
18639 -2661 2191
18625 -2689 2207
18604 -2716 2221
18598 -2745 2238
18596 -2774 2254
18528 -2794 2263
18509 -2821 2277
18483 -2846 2290
18504 -2879 2309
18496 -2907 2324
18456 -2930 2335
18427 -2955 2347
18497 -2995 2371
18517 -3028 2389
18555 -3062 2409
18741 -3123 2449
19028 -3200 2502
19628 -3331 2596
19851 -3400 2641
19893 -3438 2662
19861 -3463 2674
19883 -3498 2692
19866 -3525 2704
19851 -3553 2717
19829 -3579 2729
19804 -3605 2740
19800 -3634 2754
19773 -3659 2764
19761 -3687 2776
19761 -3716 2790
19746 -3743 2802
19706 -3765 2809
19741 -3801 2827
22302 -4327 3209
22295 -4358 3222
22349 -4402 3245
22514 -4467 3283
22517 -4501 3298
22654 -4561 3331
22813 -4626 3369
22937 -4684 3401
22137 -4553 3295
22043 -4565 3295
22129 -4614 3321
21905 -4598 3300
23513 -4969 3555
23524 -5004 3569
23591 -5052 3592
23685 -5105 3619
23718 -5145 3637
23800 -5196 3662
23908 -5252 3690
23973 -5299 3712
24064 -5351 3739
24141 -5401 3762
24352 -5481 3807
24451 -5536 3833
24593 -5600 3867
24727 -5664 3899
24777 -5707 3918
24850 -5756 3940
24838 -5785 3949
24849 -5820 3961
24843 -5850 3970
24852 -5884 3982
24874 -5920 3995
24873 -5952 4004.0002
24892 -5987 4017.0002
24897 -6019 4027
24894 -6049 4034.9998
24886 -6077 4041.9998
24892 -6109 4052
24890 -6138 4060
