# .PCD v0.7 - Point Cloud Data file format
VERSION 0.7
FIELDS x y z
SIZE 4 4 4
TYPE F F F
COUNT 1 1 1
WIDTH 2939
HEIGHT 1
VIEWPOINT 0 0 0 1 0 0 0
POINTS 2939
DATA ascii
23755 7224 3567
23725 7199 3564
0 0 0
0 0 0
0 0 0
0 0 0
0 0 0
0 0 0
0 0 0
24131 7172 3635
24166 7163 3641
24186 7149 3644
24240 7144 3652
24338 7153 3666
24385 7145 3673
24438 7139 3681
24482 7130 3687
24541 7125 3695
24608 7122 3704
24612 7100 3703
24600 7074 3700
24456 7008 3677
24442 6981 3673
20180 5744 3031
20266 5748 3043
20310 5741 3046
20373 5738 3054
20353 5712 3049
20337 5686 3044
20351 5669 3044
20389 5659 3047
20437 5650 3051
20533 5655 3063
20627 5658 3074
20681 5651 3079
20785 5656 3091
20853 5651 3097
20928 5649 3104
20938 5627 3102
20971 5612 3103
20811 5545 3075
20850 5531 3076
20707 5469 3050
20655 5432 3038
20590 5390 3024
17445 4546 2557
17376 4507 2543
17357 4481 2536
17358 4460 2532
17437 4459 2538
17434 4437 2533
17450 4419 2530
17463 4400 2527
17469 4379 2523
17465 4356 2516
17453 4330 2509
17461 4310 2504
17487 4293 2502
17501 4274 2498
17476 4244 2488
17482 4223 2483
17500 4203 2479
17525 4186 2476
17535 4164 2471
17520 4137 2462
17529 4115 2456
17532 4092 2449
17472 4054 2434
19373 4468 2690
19393 4445 2685
19377 4414 2674
19392 4390 2668
19405 4365 2661
19390 4334 2650
19414 4311 2644
19436 4288 2638
19446 4261 2629
19438 4231 2618
19439 4203 2609
19438 4174 2599
19503 4159 2597
19754 4184 2621
19903 4186 2630
20175 4213 2655
20416 4232 2676
20632 4246 2692
20839 4257 2707
20848 4227 2697
20869 4200 2687
20876 4169 2676
20904 4143 2667
20924 4114 2657
20945 4086 2647
20957 4056.0002 2635
20987 4028.9998 2625
21003 3999 2614
21016 3968 2602
21027 3937 2590
21051 3908 2579
21063 3877 2566
21089 3848 2555
21109 3818 2543
21132 3788 2531
21141 3755 2517
21154 3724 2504
21184 3695 2492
21200 3663 2479
21176 3624 2460
21160 3587 2443
21180 3556 2429
18071 3005 2059
18090 2978 2046.9999
18080 2947 2032.0001
18060 2913 2016
18033 2879 1998
18027 2848 1983
17726 2771 1935
20928 3237 2268
17683 2706 1902
20666 3128 2206
20628 3087 2184
20531 3039 2157
20411 2987 2127
20235 2928 2091
20214 2891 2071
20130 2844 2043.9999
20167 2815 2030
20038 2763 1999
19911 2713 1969
19783 2662 1939
19722 2620 1915
17000 2230 1635
16961 2196 1615
16923 2162 1595
16886 2129 1576
16861 2097 1558
16773 2058 1533
16804 2032.0001 1520
16831 2007 1506
16839 1979 1490
16853 1952 1474
16874 1926 1459
16890 1898 1443
16891 1870 1426
16919 1844 1411
16927 1816 1394
16939 1788 1378
16937 1759 1360
16946 1731 1343
16989 1706 1328
16993 1677 1310
17014 1651 1293
17013 1621 1275
17049 1596 1259
17076 1569 1242
17089 1541 1224
17082 1512 1205
17055 1480 1184
16913 1438 1155
16766 1397 1125
16675 1361 1100
16628 1328 1078
16544 1293 1053
16439 1257 1027
16351.999 1223 1003
16264.999 1188 978
16177 1154 954
16103.001 1121 930
15985 1086 904
15944 1056 882
15835 1021 857
15798 992 835
15747 962 813
15649 930 789
15540 897 764
15477 867 741
15415 838 719
15289 805 694
15221 776 672
15153 747 649
15092 719 627
15009 690 604
14925 661 581
14847 632 559
14734 603 536
14691 577 515
11774 443 397
11901 428 385
11822 406 367
11856 388 353
11805 366 335
11789 346 318
11773 327 302
11767 307 286
11754 288 269
11773 269 254.00002
11767 250 237
11783 231 221
11783 212 205
11788 193 188
11763 173 171
11679 153 153
11594 133 136
11589 115 119
11521 95 102
11464 77 85
11399 58 68
11340 40 51
11291 22 35
11239 4 18
11184 -12 2
11099 -30 -14
11052 -47 -30
10924 -63 -46
10778 -79 -61
10588 -94 -75
10422 -109 -90
10393 -124 -105
10389 -140 -121
10390 -156 -136
10402 -172 -152
10392 -187 -168
10407 -203 -184
10405 -219 -199
10422 -235 -215
10428 -250 -231
10425 -266 -247
10419 -281 -263
10446 -297 -280
10444 -312 -296
10454 -327 -312
10457 -343 -328
10456 -358 -345
10467 -373 -361
10471 -388 -378
10481 -404 -394
10489 -419 -411
10492 -434 -427
10492 -448 -444
10501 -463 -461
10508 -478 -478
10514 -493 -494
10522 -508.00003 -510.99997
10529 -523 -528
10531 -538 -545
10537 -552 -562
10538 -566 -579
10548 -581 -596
10527 -594 -612
10531 -608 -629
10535 -623 -646
10525 -636 -663
10526 -650 -680
6988 -440 -462
6962 -448 -472
6932 -455 -481
6904 -462 -490
6849 -467 -497
6820 -474 -505.99997
6823 -483 -517
6816 -491 -528
6816 -499 -539
6820 -508.00003 -550
6814 -516 -561
6807 -523 -571
6830 -534 -584
10241 -813 -892
10208 -823 -906
10152 -830 -918
10133 -841 -933
10076 -848 -944
10032 -856 -956
9985 -863 -968
9931 -870 -978
9891 -878 -991
9866 -887 -1003.9999
9830 -895 -1016.0001
9797 -903 -1029
9765 -911 -1041
9705 -916 -1051
9669 -923 -1062
9637 -931 -1075
9601 -938 -1086
9555 -944 -1096
9523 -951 -1108
9481 -957 -1119
9446 -963 -1130
9405 -969 -1140
9374 -975 -1151
9346 -982 -1163
9315 -988 -1174
9264 -992 -1183
9229 -998 -1193
9199 -1003.9999 -1204
9168 -1008.9999 -1215
9148 -1016.0001 -1227
9099 -1020 -1235
9078 -1026 -1246
9042 -1031 -1256
9007 -1035 -1266
8981 -1041 -1276
8938 -1044 -1284
8905 -1048 -1294
8861 -1051 -1301
8825 -1055 -1310
8802 -1060 -1320
8769 -1064 -1329
8742 -1068 -1339
8704 -1071 -1347
8670 -1074 -1355
8646 -1079 -1365
8613 -1082 -1373
8575 -1085 -1380
8548 -1088 -1389
8509 -1090 -1396
8498 -1096 -1407
8450 -1096 -1412
8415 -1098 -1419
8408 -1104 -1431
8375 -1106 -1438
8356 -1110 -1448
8319 -1112 -1454
8291 -1114 -1462
8240 -1114 -1465
8251 -1121 -1479
8186 -1118 -1480
8201 -1126 -1495
8185.0005 -1130 -1504
8156.9995 -1132 -1511
8141 -1135 -1521
8093.0005 -1134 -1523
8043 -1133 -1526
8040 -1138 -1537
8017.9995 -1140 -1545
8012.9995 -1144 -1555
7949 -1140 -1555
7926 -1142 -1562
7926 -1147 -1573
7920 -1151 -1583
7898 -1153 -1590
7883 -1155 -1598
7866 -1157 -1606
7857 -1161 -1615
7842 -1163 -1623
7807 -1162 -1627
7795 -1165 -1635
7757 -1163 -1638
7737 -1164 -1644
7718 -1166 -1651
7660 -1161 -1649
7679 -1168 -1663
7671 -1170 -1672
7644 -1170 -1676
7636 -1172 -1685
7596 -1170 -1686
7594 -1173 -1696
7530 -1167 -1691
7527 -1170 -1700
7510 -1170 -1706
7510 -1174 -1715
7476 -1171 -1717
7448 -1170 -1720
7447 -1173 -1729
7403 -1169 -1729
7380 -1169 -1733
7371 -1170 -1740
7369 -1172 -1748
7373 -1176 -1758
7327 -1171 -1756
7348 -1177 -1770
7317 -1174 -1771
7311 -1176 -1778
7303 -1177 -1785
7294 -1178 -1791
7292 -1180 -1799
7275 -1179 -1803
7227 -1173 -1799
7192 -1170 -1799
7167 -1168 -1801
7159 -1168 -1807
7145 -1168 -1811
7133 -1168 -1816
7099 -1164 -1815
7099 -1166 -1823
7080 -1164 -1825
7082 -1166 -1833
7082 -1167 -1841
7069 -1167 -1845
7050 -1165 -1847
7034 -1163 -1850
7034 -1165 -1857
7014 -1162 -1859
7001 -1161 -1862
7001 -1162 -1869
6970 -1158 -1867
6957 -1157 -1870
6937 -1155 -1871
6932 -1154 -1876
6925 -1154 -1881
6915 -1153 -1884
6903 -1152 -1887
6915 -1154 -1897
6885 -1150 -1895
6872 -1148 -1897
6873 -1149 -1903
6862 -1147 -1906
6830 -1142 -1903
6814 -1140 -1904
6818 -1141 -1911
6805 -1138 -1912
6806 -1139 -1918
6806 -1139 -1923
6783 -1135 -1922
6775 -1133 -1925
6772 -1133 -1929
6765 -1132 -1932
6764 -1131 -1936
6761 -1130 -1940
6749 -1128 -1941
6738 -1126 -1943
6740 -1125 -1948
6726 -1123 -1948
6721 -1121 -1951
6702 -1118 -1950
6709 -1118 -1956
6693 -1115 -1956
6692 -1114 -1959
6684 -1112 -1961
6666 -1108 -1960
6668 -1107 -1964
6667 -1106 -1967
6677 -1107 -1974
6653 -1102 -1970
6653 -1101 -1974
6637 -1097 -1972
6643 -1097 -1977
6626 -1093 -1975
6622 -1091 -1977
6614 -1088 -1978
6613 -1087 -1981
6627 -1087 -1987
6609 -1083 -1985
6581 -1077 -1979
6594 -1077 -1986
6599 -1077 -1990
6571 -1070 -1983
6572 -1069 -1986
6584 -1069 -1992
6577 -1066 -1992
6564 -1062 -1990
6549 -1058 -1988
6575 -1060 -1997
6564 -1056 -1996
6572 -1056 -2000
6560 -1051 -1998
6552 -1048 -1997
6535 -1043 -1993
6538 -1042 -1995
6538 -1039 -1997
6538 -1037 -1998
6528 -1033 -1996
6554 -1035 -2005.0001
6526 -1028 -1997
6542 -1028 -2003
6533 -1024 -2000.9999
6558 -1025 -2010
6537 -1019.0001 -2004
6538 -1016.9999 -2004
6543 -1015 -2006
6534 -1011.0001 -2004
6536 -1008 -2005.0001
6537 -1006.0001 -2005.0001
6516 -1000 -1999
6541 -1001.0001 -2007
6545 -998 -2007.9999
6543 -995 -2007
6530 -990 -2003
6549 -990 -2007.9999
6535 -985 -2004
6544 -983 -2006
6538 -979 -2003
6539 -976 -2003
6550 -975 -2005.0001
6545 -971 -2003
6559 -969 -2006
6549 -964 -2002.0001
6552 -962 -2002.0001
6561 -959 -2004
6557 -955 -2000.9999
6555 -951 -1999
6567 -950 -2000.9999
6556 -945 -1996
6585 -945 -2004
6568 -939 -1997
6570 -936 -1995
6582 -934 -1997
6586 -930 -1996
6581 -926 -1993
6579 -922 -1990
6580 -918 -1988
6612 -919 -1995
6596 -913 -1988
6616 -911 -1992
6606 -906 -1986
6606 -902 -1984
6592 -896 -1976
6623 -896 -1983
6621 -892 -1979
6640 -890 -1982
6629 -884 -1975
6647 -883 -1978
6648 -878 -1975
6656 -875 -1974
6644 -869 -1966
6656 -866 -1966
6665 -863 -1965
6672 -860 -1964
6680 -856 -1962
6676 -851 -1957
6685 -847 -1956
6704 -846 -1957
6709 -841 -1954
6717 -838 -1952
6737 -836 -1954
6725 -830 -1946
6753 -828 -1949
6739 -822 -1941
6741 -817 -1937
6757 -814 -1936
6737 -807 -1926
6771 -806 -1930
6785 -803 -1929
6786 -798 -1924
6807 -796 -1925
6807 -791 -1920
6816 -787 -1917
6844 -785 -1919
6851 -781 -1915
6850 -776 -1909
6871 -773 -1909
6895 -770 -1910
6885 -764 -1901
6910 -762 -1902
6919 -757 -1898
6937 -754 -1897
6943 -749 -1892
6942 -744 -1885
6965 -741 -1885
6977 -737 -1881
6977 -731 -1875
6971 -725 -1866
7022 -725 -1873
7027 -720 -1867
7026 -715 -1860
7050 -711 -1859
7064 -707 -1855
7078 -703 -1851
7069 -697 -1841
7089 -693 -1839
7090 -688 -1832
7109 -684 -1829
7136 -681 -1827
7142 -676 -1821
7171 -673 -1820
7184 -668 -1815
7233 -667 -1819
7272 -665 -1820
7278 -659 -1813
7271 -653 -1803
7284 -648 -1798
7285 -643 -1789
7305 -638 -1785
7321 -634 -1780
7335 -629 -1774
7342 -624 -1767
7369 -620 -1764
7387 -616 -1759
7411 -612 -1755
7450 -609 -1755
7449 -603 -1744
7484 -600 -1743
7494 -594 -1735
7511 -590 -1729
7519 -584 -1721
7552 -580 -1718
7523 -572 -1701
7541 -567 -1695
7566 -563 -1690
7612 -560 -1689
7635 -556 -1684
7658 -551 -1678
7648 -544 -1665
7688 -541 -1662
7706 -536 -1655
7736 -532 -1650
7777 -529 -1647
7814 -525 -1644
7836 -520 -1637
7837 -514 -1625
7848 -508.00003 -1615
7864 -503.00003 -1607
7891 -498 -1600
7887 -492 -1587
7937 -489 -1585
7959 -484 -1577
8003.9995 -480 -1574
8014 -475 -1563
8035 -470 -1554
8076.9995 -466 -1549
8120 -462 -1545
8125 -456 -1533
8109 -449 -1516
8118 -443 -1505
8106 -436 -1490
8104 -430 -1476
8109.9995 -424 -1463
8111 -417 -1450
8097.9995 -411 -1434
8108 -405 -1422
8142 -400 -1414
8253 -400 -1420
8439 -402 -1438
8473 -398 -1429
8490 -392 -1417
8535 -388 -1410
8568 -383 -1401
8611 -379 -1393
8631 -373 -1381
8674 -369 -1373
8705 -364 -1362
8750 -359 -1353
8780 -354 -1343
8815 -349 -1333
8863 -345 -1323
8893 -340 -1312
8930 -335 -1301
8957 -330 -1289
8997 -325 -1278
9042 -320 -1268
9086 -316 -1258
9120 -310 -1246
9159 -305 -1234
9200 -301 -1223
9232 -295 -1210
9289 -291 -1200
9326 -286 -1187
9344 -280 -1172
9401 -276 -1161
9448 -271 -1149
9496 -266 -1137
9542 -261 -1124
9586 -256 -1111
9631 -252 -1097
9682 -247 -1085
9721 -242 -1070
9767 -237 -1056
9806 -232 -1042
9862 -227 -1028
9897 -222 -1011.9999
9966 -217 -1000
9989 -212 -983
10039 -207 -968
10100 -202 -953
10173 -198 -940
10204 -193 -923
6804 -124 -602
6805 -121 -588
6814 -117 -575
6809 -113 -561
6798 -109 -547
6793 -106 -532
6826 -102 -521
6872 -100 -510.99997
6904 -96 -499
6931 -93 -487
6984 -90 -477
10540 -131 -699
10536 -126 -677
10534 -121 -655
10523 -116 -633
10524 -111 -611
10511 -105 -589
10510 -100 -567
10491 -95 -544
10490 -91 -522
10472 -86 -500
10464 -81 -478
10464 -76 -456
10465 -72 -434
10449 -67 -412
10448 -63 -390
10432 -59 -367
10437 -54 -346
10426 -50 -324
10428 -46 -302
10422 -42 -280
10413 -38 -258
10396 -34 -235
10390 -30 -213
10391 -27 -192
10377 -23 -169
10380 -19 -148
10381 -16 -126
10401 -12 -104
10642 -9 -84
10885 -6 -62
11046 -3 -40
11109 0 -17
11180 3 6
11271 6 30
11373 10 55
11465 13 79
11603 16 105
11632 19 130
11766 23 156
11790 26 181
11793 28 207
11786 31 232
11780 34 257
11776 37 282
11787 39 307
11793 42 332
11845 44 359
14562 57 472
14702 61 508.00003
14790 64 543
14824 66 575
14785 69 605
14798 71 637
14798 73 668
14797 76 700
14798 78 732
14882 80 767
15025 83 807
15222 86 849
16157 93 936
16263 95 977
16313 97 1014.0001
16563 100 1065
16641 102 1105
16802 104 1152
16994 106 1201
17140 108 1247
17309 111 1296
17474 112 1345
17625 114 1393
17798 116 1444
18063 118 1503
18092 119 1544
18107 119 1583
18111 119 1622
18129 120 1661
18109 119 1697
18100 119 1734
18152 119 1776
18159 119 1815
18190 118 1856
18241 118 1899
18264 117 1939
18272 117 1978
18269 115 2015.0001
18244 114 2049
18274 113 2090
18265 112 2126
18262 110 2164
18259 108 2201
18280 107 2240
18304 105 2280
18443 104 2336
18871 104 2428
19917 108 2602
20129 106 2670
20126 104 2711
20139 101 2753
20143 98 2794
20137 95 2834
20139 92 2874
25552 113 3698
25823 110 3788
26541 108 3946
26561 103 4001
26557 99 4052
26551 93 4103
26548 88 4155
26624 83 4218
26707 78 4283
26782 73 4347
26789 66 4399
26788 61 4450
26793 54 4502
26796 48 4554
26801 42 4606
26822 35 4660
26823 28 4712
26818 22 4761
26807 15 4810
26811 8 4861
26823 0 4913
23405 -5 4331
23412 -12 4376
23392 -19 4415
23397 -26 4459
23427 -32 4507
26826 -45 5210
26843 -54 5263
26842 -62 5312
28680 -75 5727
28686 -84 5780
28654 -94 5825
28650 -103 5874
28622 -112 5919
28600 -122 5965
28605 -132 6017
28651 -142 6076
44792 -238 9578
28599 -161 6164
28524 -171 6196
28539 -182 6248
28607 -193 6312
45036 -321 10013
44969 -337 10076
44978 -354 10153
45017 -371 10235
45113 -390 10332
45314 -408 10452
45732 -431 10625
45728 -449 10698
45725 -466 10772
45701 -484 10841
45682 -504 10909
45663 -523 10977
45639 -540 11043
48384 -592 11785
48357 -613 11854
48332 -634 11924
48297 -654 11990
48264 -675 12057
48230 -695 12122
48212 -715 12190
48202 -735 12261
28205 -443 7217
28195 -455 7256
28153 -467 7287
28150 -480 7328
28106 -492 7357
28087 -504 7393
28100 -517 7437
28114 -530 7480
48031 -928 12847
48010 -950 12909
47976 -972 12966
47987 -994 13035
47948 -1016.0001 13090
47934 -1038 13151
47941 -1060 13217
47907 -1082 13272
47891 -1105 13331
47879 -1126 13390
47871 -1149 13450
47846 -1172 13505
47854 -1196 13568
47822 -1217 13619
47838 -1242 13683
47782 -1263 13726
47778 -1286 13784
47758 -1308 13836
47744 -1332 13889
47749 -1356 13948
47722 -1379 13997
47701 -1401 14046
47696 -1424 14100
47683 -1448 14151
47647 -1471 14194
47657 -1495 14251
47606 -1516 14290
47622 -1541 14347
47614 -1565 14396
47601 -1588 14443
47579 -1612 14487
47576 -1636 14536
47573 -1660 14585
47547 -1683 14626
47561 -1708 14678
47549 -1732 14722
47518 -1754 14760
47506 -1777 14802
47500 -1801 14846
47481 -1824 14885
47475 -1848 14927
47468 -1872 14969
47461 -1896 15010
47419 -1918 15039
47430 -1943 15084
47433 -1966 15126
47410 -1989 15159
47401 -2013 15196
47401 -2037 15235
47373 -2058 15264
47367 -2082 15300
47380 -2107 15341
47371 -2129 15375
47345 -2152 15403
47346 -2176 15439
47321 -2200 15465
47306 -2222 15494
47313 -2246 15530
47306 -2269 15560
47301 -2291 15590
47301 -2315 15622
47276 -2338 15645
47280 -2360 15676
47277 -2383 15704
47280 -2407 15734
47255 -2428 15753
47260 -2451 15783
47248 -2474 15806
47239 -2497 15828
47250 -2519 15857
47237 -2542 15878
47223 -2564 15897
47224 -2587 15921
47200 -2608 15936
47239 -2633 15971
47219 -2655 15986
47216 -2676 16004.999
47205 -2699 16021.999
47205 -2720 16042
47168 -2741 16047.001
47194 -2764 16073.999
47192 -2786 16091
47200 -2809 16110.001
47194 -2829 16125
47170 -2850 16132
47158 -2869 16142
47166 -2893 16159
47174 -2914 16174.999
47168 -2935 16184.999
47159 -2956 16194
47174 -2978 16209.999
47185 -3000 16225
47165 -3018 16228.001
47163 -3039 16236
47173 -3059 16247.999
47167 -3081 16254
47173 -3102 16263
47163 -3119 16267
47166 -3141 16273.001
47170 -3160 16280.001
47177 -3180 16287.001
47167 -3200 16287.001
47167 -3219 16290.001
47171 -3239 16294.001
47158 -3257 16291
47181 -3278 16299.999
47169 -3296 16296
47170 -3315 16296
47174 -3335 16296
47167 -3353 16292
47180 -3371 16295
47158 -3388 16284
47166 -3407 16283.001
47174 -3426 16281
47187 -3445 16280.001
47168 -3461 16268
47195 -3480 16271
47189 -3498 16261.999
47208 -3517 16261
47196 -3532 16247.999
47204 -3550 16242.001
47207 -3565 16233
47187 -3582 16215
47188 -3599 16204
47191 -3616 16194
47227 -3634 16194
47236 -3649 16184
47231 -3665 16167.999
47225 -3682 16150.999
47233 -3697 16139
47255 -3714 16131.001
47235 -3727 16108
47296 -3747 16111
47259 -3759 16080.999
47273 -3775 16066.999
47262 -3787 16044.001
47283 -3803 16031
47301 -3819 16017
47287 -3832 15991
47312 -3848 15977
47307 -3860 15953
47316 -3875 15932
47325 -3888 15912
47321 -3899 15886
47349 -3916 15870
47335 -3928 15840
47340 -3939 15816
47351 -3953 15792
47369 -3965 15771
47382 -3978 15747
47383 -3990 15718
47392 -4001.9998 15691
47417 -4015.9998 15669
47413 -4026 15636
47431 -4039 15610
47422 -4047 15576
47452 -4060 15552
47471 -4072 15525
47448 -4079 15483
47470 -4091 15455
47481 -4101 15423
47515 -4113 15398
47516 -4123 15362
47509 -4131 15323
47521 -4140 15289
47551 -4151 15260
47542 -4157 15218
47564 -4167 15185
47579 -4176 15149
47595 -4185 15113
47608 -4193 15075
47596 -4199 15029
47619 -4208 14993
47623 -4215 14951
47651 -4224 14915
47687 -4232 14883
47673 -4237 14833
47694 -4244 14793
47715 -4251 14754
47713 -4257 14705
47723 -4261 14660
47763 -4269 14624
47757 -4272 14574
47759 -4276 14525
47794 -4285 14486
47804 -4289 14438
47800 -4291 14386
47843 -4297 14347
47839 -4299 14293
47855 -4304 14246
47871 -4308 14197
29051 -2615 8583
29082 -2619 8559
29097 -2621 8530
29118 -2623 8502
29091 -2622 8460
29152 -2627 8443
29163 -2628 8411
29137 -2626 8369
29202 -2632 8353
29209 -2631 8318
29170 -2627 8271
29182 -2628 8238
29193 -2628 8204
29202 -2628 8168.9995
29202 -2626 8132
29240 -2629 8104.9995
29245 -2628 8068
29239 -2625 8029.0005
29249 -2624 7993
29265 -2624 7958
29267 -2622 7920
29281 -2621 7885
29089 -2601 7794
28661 -2560 7639
28397 -2533 7530
28275 -2520 7458
28276 -2516 7419
14581 -1296 3805
14573 -1293 3782
14573 -1291 3762
14568 -1289 3739
14572 -1287 3719
14535 -1282 3688
14520 -1278 3663
14534 -1277 3645
14580 -1278 3635
14580 -1276 3613
14583 -1273 3592
14600 -1272 3574
14619 -1271 3557
14595 -1265 3528
14619 -1264 3512
14642 -1263 3495
14651 -1261 3474
14697 -1262 3462
14667 -1255 3432
14679 -1253 3412
14679 -1249 3389
14683 -1246 3366
14684 -1242 3343
14695 -1239 3322
14685 -1234 3296
14669 -1229 3269
14675 -1225 3246
14673 -1220 3222
14633 -1213 3189
14529 -1199 3143
14536 -1195 3120
14550 -1192 3099
14585 -1190 3082
14570 -1184 3055
14576 -1179 3032
14579 -1174 3008
14560 -1167 2980
14531 -1160 2948
14541 -1155 2926
14547 -1150 2903
14578 -1147 2884
14613 -1144 2866
14592 -1137 2837
14637 -1134 2820
14651 -1129 2797
14655 -1123 2772
14648 -1116 2745
14649 -1110 2719
14659 -1104 2696
14670 -1099 2672
14642 -1090 2641
14653 -1084 2617
14647 -1076 2589
14653 -1069 2564
14647 -1062 2537
28987 -2087 4969
28951 -2070 4911
28946 -2055 4857
28936 -2040 4803
28922 -2023 4748
28884 -2005.0001 4689
0 0 0
0 0 0
27187 -1842 4264
26993 -1814 4184
15085 -1005 2310
15052 -994 2278
15013 -983 2244
15017 -974 2217
15076 -969 2198
15080 -960 2170
15057 -949 2139
15064 -940 2112
15077 -932 2086
15094 -923 2060
15104 -914 2033
15118 -905 2007
15148 -897 1982
15150 -887 1954
15167 -877 1928
15239 -871 1908
18759 -1060 2313
18765 -1047 2279
18757 -1033 2243
18760 -1020 2208
18742 -1006.0001 2171
18726 -992 2134
18717 -978 2097
18735 -964 2063
18685 -948 2022.0001
18692 -934 1988
18678 -920 1952
18681 -905 1917
18685 -891 1882
18702 -877 1848
18695 -862 1812
18669 -846 1773
18663 -830 1737
18575 -811 1693
18293 -784 1633
18122 -761 1583
15394 -634 1315
15317 -618 1280
15232 -601 1244
15192 -587 1211
15126 -571 1178
15091 -557 1146
15042 -542 1114
14787 -520 1067
14653 -501.99997 1030
14652 -489 1002
14625 -474 972
14538 -458 938
14498 -444 908
14441 -429 878
14406 -414 849
14403 -400 821
14391 -386 793
14394 -373 766
14384 -359 738
14396 -345 711
14404 -331 684
14449 -318 660
14461 -304 633
14481 -290 606
14503 -275 580
14512 -261 553
14525 -246 526
14583 -232 501
11903 -177 386
11827 -164 362
11808 -151 339
11790 -139 317
11790 -126 295
11788 -114 273
11791 -102 252
11788 -89 230
11798 -76 208
11794 -63 186
11745 -50 163
11621 -37 140
11600 -24 119
11504 -11 97
11423 1 75
11343 14 54
11281 27 33
11208 39 12
11155 52 -7
11038 64 -27
10954 76 -47
10793 87 -65
10555 98 -83
10390 108 -100
10371 120 -119
10372 132 -137
10364 145 -155
10368 157 -174
10380 170 -192
10380 182 -211
10392 195 -229
10392 208 -248
10394 220 -266
10407 233 -284
10398 246 -302
10410 259 -320
10411 272 -338
10420 285 -356
10414 297 -374
10420 311 -392
10425 324 -410
10427 337 -428
10443 351 -447
10449 365 -465
10445 378 -483
10460 392 -501
10468 406 -519
10467 419 -537
10474 433 -554
10485 447 -572
10484 460 -589
10483 474 -607
10490 488 -624
10489 501.99997 -641
10491 516 -659
10498 530 -676
10503 544 -694
10515 558 -711
10521 573 -729
6933 386 -491
6911 394 -500
6854 400 -507.00003
6847 409 -517
6834 418 -527
6787 424 -534
6776 432 -544
6771 441 -554
6812 453 -568
6764 459 -574
6793 470 -587
6792 479 -598
6798 489 -608
6789 498 -618
6802 508.00003 -629
6804 517 -640
6802 527 -649
6803 536 -660
6803 545 -670
6806 555 -680
6811 565 -691
6818 575 -701
6822 585 -712
6830 595 -722
6833 605 -732
9774 879 -1061
9747 890 -1072
9713 900 -1082
9679 911 -1092
9650 921 -1102
9634 933 -1114
9597 943 -1122
9560 953 -1131
9546 965 -1142
9502 973 -1150
9463 983 -1158
9445 994 -1168
9402 1003 -1175
9388 1014.0001 -1186
9372 1026 -1196
9059 1003.9999 -1168
7995 897 -1041
7998 909 -1051
8076.9995 929 -1072
7962 927 -1067
7942 936 -1074
7917 944 -1081
7897 952 -1088
7884 962 -1096
7885 973 -1106
7904 986 -1118
7924 1000 -1130
7914 1010 -1138
7932 1023 -1150
7939 1035 -1161
7960 1049 -1173
7957 1059 -1182
7976 1073 -1194
7984 1085 -1204
7962 1093 -1210
7942 1101 -1216
7927 1110 -1222
7896 1116 -1226
7872 1124 -1231
7856 1132 -1237
7836 1140 -1242
7826 1149 -1249
7823 1159 -1257
7788 1164 -1259
7764 1171 -1263
7753 1180 -1270
7731 1187 -1274
7723 1196 -1280
7692 1202 -1283
7687 1211 -1290
7680 1220 -1296
7650 1226 -1299
7630 1233 -1303
7617 1241 -1308
7599 1248 -1312
7592 1257 -1318
7580 1265 -1322
7559 1271 -1326
7547 1279 -1331
7538 1287 -1336
7507 1292 -1337
7507 1301 -1343
7482 1307 -1346
7468 1314 -1349
7465 1323 -1355
7456 1331 -1360
7438 1337 -1363
7412 1342 -1364
7415 1351 -1371
7401 1358 -1374
7377 1363 -1375
7369 1371 -1380
7361 1378 -1384
7344 1384 -1386
7334 1392 -1390
7311 1396 -1391
7312 1405 -1396
7297 1411 -1399
7293 1420 -1403
7284 1426 -1407
7277 1434 -1411
7270 1441 -1414
7251 1446 -1415
7229 1450 -1416
7238 1460 -1422
7216 1464 -1423
7211 1472 -1426
7220 1482 -1432
7193 1485 -1432
7181 1490 -1433
7182 1499 -1438
7165 1503 -1439
7165 1511 -1443
7155 1517 -1445
7146 1523 -1447
7138 1529 -1449
7121 1533 -1450
7113 1539 -1452
7112 1547 -1455
7098 1551 -1456
7107 1561 -1461
7094 1566 -1462
7077 1569 -1462
7073 1576 -1465
7068 1582 -1467
7067 1589 -1470
7056 1593 -1470
7061 1602 -1475
7043 1605 -1474
7041 1611 -1476
7040 1618 -1478
7026 1621 -1478
7022 1627 -1480
7011 1632 -1480
7030 1643 -1487
6998 1642 -1482
7003 1649 -1486
6997 1655 -1487
6989 1659 -1487
6991 1666 -1490
6973 1668 -1488
6985 1677 -1493
6979 1682 -1493
6988 1690 -1497
6967 1691 -1494
6969 1697 -1496
6974 1704 -1499
6963 1708 -1498
6958 1712 -1499
6954 1717 -1499
6959 1724 -1502
6941 1724 -1499
6953 1733 -1503
6945 1736 -1502
6946 1742 -1504
6939 1745 -1503
6943 1751 -1505
6940 1756 -1505
6930 1758 -1504
6935 1764 -1505
6944 1772 -1508
6929 1773 -1505
6935 1779 -1507
6914 1778 -1503
6934 1788 -1508
6931 1792 -1507
6932 1797 -1508
6928 1800 -1507
6918 1802 -1505
6915 1805 -1504
6902 1806 -1501
6932 1818 -1508
6929 1821 -1507
6925 1824 -1506
6931 1829 -1507
6924 1831 -1505
6927 1836 -1505
6926 1839 -1505
6932 1844 -1505
6920 1844 -1502
6936 1852 -1505
6926 1853 -1502
6936 1859 -1503
6932 1861 -1502
6937 1865 -1502
6945 1871 -1503
6930 1870 -1498
6950 1878 -1501
6960 1883 -1502
6951 1884 -1499
6948 1886 -1497
6958 1891 -1498
6965 1895 -1498
6963 1897 -1496
6968 1901 -1495
6983 1908 -1497
6987 1911 -1496
6983 1912 -1493
6991 1916 -1493
6910 1896 -1474
7001 1923 -1491
6997 1923 -1488
6997 1925 -1486
6987 1924 -1482
7017 1934 -1486
7007 1933 -1481
7019 1937 -1481
7025 1940 -1480
7027 1942 -1478
7033 1945 -1477
7042 1949 -1476
7045 1950 -1474
7049 1953 -1472
7060 1956 -1471
7058 1956 -1468
7065 1959 -1466
7068 1961 -1464
7067 1961 -1461
7089 1967 -1462
7109 1973 -1463
7116 1975 -1461
7109 1974 -1456
7118 1976 -1455
7133 1980 -1454
7125 1978 -1449
7133 1980 -1447
7148 1984 -1446
7147 1984 -1442
7158 1986 -1441
7164 1987 -1438
7183 1992 -1438
7188 1993 -1435
7199 1995 -1433
7193 1992 -1428
7200 1993 -1425
7205 1994 -1422
7219 1997 -1420
7243 2002.0001 -1421
7236 1999 -1415
7250 2000.9999 -1413
7255 2000.9999 -1410
7275 2005.0001 -1409
7282 2005.0001 -1406
7303 2009.0001 -1405
7296 2006 -1399
7307 2007 -1396
7318 2007.9999 -1393
7336 2010.9999 -1392
7349 2012.0001 -1389
7365 2014 -1387
7366 2012.0001 -1382
7382 2014 -1380
7381 2010.9999 -1375
7392 2010.9999 -1371
7409 2013 -1369
7425 2015.0001 -1367
7438 2016 -1363
7430 2010.9999 -1356
7456 2014 -1356
7480 2017.9999 -1354
7485 2016 -1349
7501 2017 -1346
7505 2014 -1341
7511 2012.0001 -1337
7524 2012.0001 -1333
7532 2010.9999 -1328
7557 2013 -1327
7566 2010.9999 -1322
7590 2014 -1320
7593 2010.9999 -1314
7607 2010 -1311
7628 2010.9999 -1308
7641 2010 -1304
7649 2007.9999 -1298
7668 2007.9999 -1295
7678 2006 -1290
7692 2005.0001 -1286
7705 2003 -1281
7716 2000.9999 -1276
7744 2003 -1274
7754 2000 -1269
7748 1994 -1261
7792 2000 -1261
7781 1991 -1252
7816 1995 -1251
7842 1995 -1248
7845 1991 -1241
7872 1991 -1238
7892 1990 -1234
7899 1986 -1228
7913 1983 -1223
7928 1981 -1217
7932 1975 -1210
7959 1975 -1207
7973 1972 -1201
7997 1971 -1198
8012 1968 -1192
8031 1966 -1187
8050 1963 -1182
8066 1960 -1176
8079.0005 1956 -1171
8085 1950 -1164
8120 1951 -1161
8130 1946 -1154
8163 1946 -1150
8167 1939 -1143
8199 1939 -1139
8217 1935 -1134
8244 1933 -1129
8278 1933 -1125
8284 1926 -1118
8296 1920 -1111
8301 1913 -1103
8311 1907 -1096
8366 1911 -1094
8378 1904 -1087
8399 1900 -1082
8512 1917 -1088
8704 1950 -1103
8807 1964 -1107
8943 1984 -1115
9261 2043.9999 -1145
9477 2081 -1162
9510 2077 -1156
9525 2070 -1148
9566 2068 -1143
9609 2066 -1138
9625 2058 -1130
9649 2051 -1122
9679 2046 -1115
9693 2037 -1107
9724 2032.0001 -1100
9748 2025.0001 -1092
9783 2020 -1086
9796 2010 -1077
9817 2002.0001 -1069
9846 1996 -1062
9880 1990 -1055
9895 1980 -1046
9908 1970 -1037
9937 1962 -1029
9975 1957 -1021.9999
9999 1948 -1014.0001
10036 1942 -1007
10057 1932 -999
10076 1922 -990
10107 1914 -982
10139 1906 -974
10154 1895 -965
10173 1885 -956
10205 1876 -948
10237 1867 -940
10268 1858 -931
10307 1851 -924
10321 1838 -914
10349 1828 -906
10390 1820 -898
10405 1808 -888
10456 1801 -881
10456 1786 -870
10492 1776 -862
10521 1765 -853
10559 1755 -845
10579 1743 -836
10618 1733 -827
10657 1723 -819
10664 1707 -808
10674 1692 -798
10715 1682 -789
10763 1673 -782
10791 1660 -772
10823 1648 -763
10829 1631 -752
10887 1623 -745
10928 1611 -736
10931 1594 -725
10954 1579 -715
10965 1563 -705
10945 1542 -692
10926 1521 -679
10909 1501 -667
10900 1482 -655
10881 1461 -643
10858 1440 -631
10841 1419 -619
10824 1399 -607
10814 1379 -595
10800 1359 -584
10770 1337 -571
10764 1318 -560
10740 1296 -548
10726 1276 -537
10721 1257 -526
10681 1233 -513
10679 1214 -503.00003
10660 1193 -491
10634 1171 -479
10622 1151 -468
10604 1130 -457
10589 1110 -446
10586 1090 -436
10593 1072 -426
10540 1047 -414
10532 1027 -403
10511 1006.0001 -393
10486 985 -382
10483 965 -372
10460 944 -361
10453 924 -351
10426 902 -340
10404 881 -330
10394 861 -320
10377 840 -310
10361 819 -300
10358 800 -291
10355 780 -281
10355 760 -272
10352 740 -263
10359 721 -254.00002
10353 701 -245
10350 681 -235
10354 662 -226
10351 642 -217
10345 621 -208
10339 601 -199
10346 581 -191
10350 561 -182
10344 541 -173
10349 521 -165
10337 500 -156
10344 481 -147
10349 460 -139
10354 441 -131
10368 421 -123
10376 401 -114
10424 382 -107
10514 365 -99
10590 346 -92
10682 328 -84
10792 310 -77
10822 290 -69
10939 271 -61
11001 250 -53
10990 228 -45
11047 207 -37
11100 186 -29
11112 164 -21
11153 142 -13
11178 120 -5
11213 98 2
11222 75 10
11250 52 18
11275 30 25
11300 7 33
11322 -15 41
11347 -38 49
11368 -61 56
11393 -85 64
11428 -108 71
11440 -132 79
11478 -156 86
11504 -179 94
11525 -203 101
11511 -227 108
11589 -252 116
11601 -276 123
11623 -301 130
11642 -325 138
11669 -350 145
11687 -375 152
11716 -400 159
11755 -425 166
11784 -450 173
11787 -475 179
11818 -500 186
11821 -525 192
11819 -549 199
11839 -574 205
11827 -598 211
11826 -622 217
11824 -647 223
11829 -671 229
11828 -695 234
11826 -720 240
11836 -744 246
11827 -768 250.99998
11830 -792 257
11824 -816 262
11827 -840 267
11828 -865 272
11822 -889 277
11820 -913 282
11831 -938 287
11829 -962 292
11833 -986 297
11833 -1011.0001 301
11833 -1035 306
11829 -1058 310
11846 -1084 315
11826 -1107 319
11837 -1132 323
11836 -1156 328
11840 -1181 332
11843 -1205 336
11844 -1229 340
11836 -1252 344
11855 -1278 348
11862 -1303 352
11864 -1327 355
11864 -1350 359
11879 -1376 362
11869 -1398 365
11874 -1423 369
11874 -1446 372
11877 -1471 375
11914 -1499 379
11893 -1520 382
11889 -1543 384
11897 -1568 387
11912 -1593 391
11920 -1618 393
11962 -1647 397
11949 -1669 399
11965 -1694 402
11999 -1723 406
12013 -1748 408
12008 -1771 410
12041 -1800 414
12040 -1823 416
12070 -1851 419
12088 -1877 421
12099 -1902 423
12132 -1930 426
12144 -1955 428
12156 -1980 430
12182 -2007.9999 432
12195 -2033.9999 434
12213 -2059 436
12234 -2086 438
12255 -2113 440
12282 -2141 442
12307 -2168 444
12323 -2194 446
12361 -2223 448
12365 -2247 449
12402 -2277 451
12417 -2303 452
12432 -2328 453
12458 -2356 455
12484 -2383 456
12504 -2410 457
12525 -2437 458
12542 -2463 459
12568 -2491 460
12597 -2519 461
12621 -2546 462
12637 -2572 462
12649 -2597 462
12698 -2629 464
12704 -2652 464
12740 -2682 465
12756 -2708 465
12773 -2734 465
12795 -2761 465
12824 -2789 466
12846 -2816 466
12866 -2842 466
12890 -2869 466
12910 -2896 465
12940 -2924 465
12958 -2950 465
12975 -2975 464
13008 -3004 464
13034 -3031 464
13037 -3054 463
13058 -3080 462
13095 -3110 462
13114 -3136 461
13130 -3161 460
13163 -3189 459
13180 -3215 458
13192 -3238 457
13222 -3266 456
13236 -3290 454
13271 -3319 453
13283 -3343 452
13304 -3368 451
13329 -3394 449
13344 -3418 448
13365 -3443 446
13400 -3472 445
13428 -3499 443
13430 -3519 441
13466 -3548 439
13493 -3575 437
13502 -3597 435
13516 -3620 433
13549 -3648 431
13557 -3669 428
13594 -3697 427
13606 -3719 424
13631 -3745 421
13644 -3767 419
13668 -3792 416
13693 -3817 414
13703 -3838 411
13731 -3864 408
13748 -3886 406
13791 -3916 404
13791 -3934 400
13815 -3958 397
13829 -3980 394
13855 -4004.0002 391
13881 -4028.9998 388
13915 -4056.0002 385
13927 -4076.0002 382
13927 -4093 378
13930 -4110 374
13978 -4141 371
14000 -4163 368
14063 -4199 365
14280 -4280 367
14233 -4281 361
14232 -4297 357
14220 -4309 352
14198 -4318 348
14182 -4328 343
14172 -4340 338
14130 -4342 333
14094 -4346 327
14123 -4369 324
14109 -4379 319
14101 -4390 314
14110 -4407 310
14071 -4409 304
14076 -4424 300
14041 -4426 295
14032 -4436 290
14002 -4439 284
13982 -4446 279
13996 -4463 275
13964 -4465 269
13924 -4464 264
13939 -4481 259
13905 -4482 254.00002
13889 -4488 249
13866 -4492 243
13848 -4497 238
13839 -4505 233
13823 -4511 228
13807 -4516 223
13793 -4522 217
13782 -4528 212
13748 -4527 206
13723 -4528 201
13725 -4538 196
13709 -4542 191
13682 -4542 185
13670 -4547 180
13630 -4543 175
13630 -4552 169
13620 -4556 164
13590 -4554 159
13580 -4559 154
13549 -4556 148
13531 -4558 143
13504 -4556 137
13498 -4561 132
13483 -4562 127.00001
13457 -4560 121
13439 -4561 115
13424 -4562 111
13388 -4556 105
13379 -4558 100
13372 -4562 94
13349 -4559 89
13330 -4558 84
13330 -4563 79
13304 -4559 73
13298 -4562 68
13280 -4560 63
13266 -4559 57
13229 -4551 52
13204 -4546 46
13213 -4553 42
13185 -4547 36
13168 -4544 31
13145 -4539 26
13118 -4533 21
13117 -4535 15
13095 -4530 10
13086 -4529 5
13060 -4523 0
13049 -4520 -4
13013 -4510 -10
13008 -4510 -15
12981 -4502 -20
12963 -4496 -25
12960 -4496 -30
12938 -4489 -35
12916 -4482 -40
12889 -4474 -45
12897 -4477 -50
12884 -4472 -55
12866 -4466 -60
12815 -4448 -65
12804 -4443 -70
12804 -4443 -75
12788 -4436 -80
12763 -4426 -85
12760 -4424 -90
12712 -4406 -94
12722 -4408 -99
12712 -4402 -104
12691 -4393 -109
12670 -4383 -114
12691 -4388 -119
12658 -4374 -123
12643 -4366 -128
12617 -4355 -133
12611 -4349 -137
12594 -4340 -142
12570 -4328 -147
12533 -4312 -151
12529 -4307 -156
12513 -4297 -160
12460 -4275 -164
12469 -4274 -169
12458 -4265 -174
12457 -4260 -178
12461 -4257 -183
12455 -4250 -187
12464 -4247 -192
12423 -4228 -196
12402 -4215 -200
12370 -4199 -204
12340 -4183 -208
12337 -4176 -213
12346 -4172 -217
12326 -4159 -221
12311 -4147 -226
12309 -4140 -230
12298 -4130 -234
12292 -4121 -238
12268 -4105 -242
12251 -4092 -246
12236 -4079 -250
12210 -4063.0002 -254.00002
12206 -4054 -258
12193 -4041.9998 -262
12190 -4033 -266
12165 -4015.9998 -269
12137 -3998 -272
12088 -3973 -275
12047 -3951 -279
12066 -3948 -283
12035 -3929 -286
12030 -3918 -290
12024 -3907 -294
12023 -3897 -297
12020 -3887 -301
11983 -3865 -304
11979 -3853 -307
11977 -3843 -311
11966 -3829 -315
11955 -3815 -318
11928 -3796 -321
11925 -3784 -324
11915 -3770 -327
11923 -3761 -331
11905 -3745 -334
11899 -3731 -337
11884 -3715 -341
11867 -3698 -343
11868 -3687 -347
11843 -3667 -349
11832 -3651 -352
11817 -3635 -355
11785 -3612 -357
11770 -3596 -360
11778 -3586 -363
11766 -3569 -366
11773 -3559 -369
11727 -3532 -370
11720 -3517 -373
11722 -3504 -376
11692 -3482 -377
11672 -3463 -379
11671 -3449 -382
11663 -3433 -385
11646 -3414 -387
11643 -3399 -389
11609 -3375 -390
11613 -3362 -393
11585 -3340 -395
11577 -3323 -397
11554 -3302 -398
11545 -3284 -400
11526 -3264 -402
11501 -3243 -403
11493 -3225 -405
11475 -3205 -407
11463 -3186 -408
11451 -3168 -410
11432 -3147 -411
11407 -3125 -412
11394 -3106 -414
11393 -3090 -415
11357 -3064 -416
11342 -3044 -417
11320 -3023 -418
11324 -3007 -420
11294 -2983 -420
11278 -2963 -421
11250 -2939 -421
11244 -2921 -423
11222 -2899 -423
11210 -2879 -424
11184 -2856 -424
11168 -2835 -425
11149 -2813 -425
11130 -2792 -425
11101 -2767 -425
11099 -2750 -426
11079 -2728 -426
11056 -2705 -426
11038 -2683 -426
11017 -2661 -426
11002 -2640 -426
10979 -2616 -426
10974 -2598 -426
10948 -2574 -426
10927 -2551 -425
10895 -2526 -424
10893 -2508 -425
10873 -2485 -424
10848 -2461 -423
10821 -2437 -422
10814 -2418 -422
10780 -2392 -421
10781 -2374 -421
10767 -2353 -420
10742 -2329 -419
10718 -2305 -418
10710 -2285 -417
10685 -2261 -416
10665 -2239 -415
10647 -2216 -414
10627 -2194 -412
10598 -2170 -411
10601 -2152 -410
10603 -2133 -410
10607 -2115 -409
10583 -2091 -407
10558 -2068 -405
10560 -2049 -404
10529 -2023.9999 -402
10502 -2000 -400
10498 -1981 -399
10475 -1957 -397
10464 -1936 -395
10434 -1911 -392
10429 -1892 -391
10391 -1865 -388
10386 -1845 -386
10359 -1821 -384
10336 -1798 -381
10324 -1776 -379
10296 -1752 -376
10283 -1730 -374
10267 -1708 -371
10265 -1689 -369
10270 -1670 -367
10267 -1649 -365
10272 -1631 -363
10267 -1610 -361
10254 -1589 -358
10253 -1569 -355
10250 -1549 -353
10248 -1529 -350
10256 -1510 -348
10254 -1490 -345
10242 -1468 -342
10256 -1450 -340
10250 -1430 -337
10245 -1409 -334
10239 -1389 -331
10232 -1368 -327
10233 -1347 -324
10222 -1326 -321
10217 -1305 -317
10233 -1287 -314
10227 -1266 -311
10219 -1245 -307
10215 -1224 -303
10221 -1205 -300
10214 -1183 -296
10209 -1163 -292
10212 -1142 -288
10206 -1121 -284
10207 -1101 -280
10202 -1080 -276
10199 -1059 -272
10191 -1038 -267
10193 -1018 -263
10186 -997 -259
10190 -977 -254.00002
10213 -958 -250
10216 -938 -246
10232 -919 -242
10246 -899 -237
10247 -879 -233
10259 -859 -228
10279 -840 -223
10275 -819 -218
10285 -799 -213
10304 -779 -209
10313 -759 -203
10325 -739 -198
10327 -717 -193
10347 -698 -188
10359 -678 -182
10365 -657 -177
10376 -637 -171
10382 -616 -165
10406 -596 -160
10410 -575 -154
10414 -555 -148
10408 -533 -142
10410 -512 -136
10395 -490 -129
10410 -469 -123
10401 -448 -116
10401 -427 -110
10406 -406 -103
10417 -385 -97
10436 -365 -90
10469 -345 -84
10547 -326 -78
10656 -308 -71
10740 -288 -64
10816 -268 -57
10890 -248 -51
10974 -228 -43
11025 -206 -36
11090 -185 -28
11107 -163 -20
11145 -141 -12
11174 -120 -4
11165 -97 3
11224 -74 12
11250 -52 20
11290 -29 29
11315 -7 37
11337 15 46
11370 38 55
11419 60 64
11422 83 73
11468 107 83
11520 130 92
11530 153 101
11581 177 111
11574 199 121
11616 223 131
11686 247 141
11736 272 152
11767 295 162
11779 319 172
11777 342 182
11777 365 192
11761 387 202
11755 410 213
11754 433 223
11761 456 233
11758 479 244
11779 501.99997 255
11790 526 266
11810 549 277
11818 572 288
11836 596 299
11837 618 310
11872 643 322
11889 666 334
11926 691 346
11954 715 358
11967 738 370
11996 763 382
11954 782 392
12038 810 407
12120 839 421
12165 864 434
12225 891 449
12184 911 459
12171 932 470
12220 959 485
12253 984 498
12265 1007 510.99997
15165 1273 647
15262 1309 667
15322 1342 685
15406 1377 705
15447 1408 722
15533 1444 742
15567 1475 760
15656 1511 781
15787 1552 804
15825 1584 822
15903 1620 843
15971 1655 864
16094.999 1697 887
16180 1733 909
16239 1768 930
16341.999 1808 953
16439 1846 976
16560 1888 1001.0001
16663 1928 1025
16788 1971 1051
16884 2010.9999 1075
16952 2048 1098
16979 2080 1118
17019 2113 1139
17061 2147 1161
17098 2180 1182
17289 2233 1215
17493 2288 1248
17539 2322 1270
17723 2375 1303
17705 2401 1322
17796 2442 1348
17908 2486 1377
18035 2533 1406
18122 2574 1433
17943 2577 1439
17953 2607 1461
17869 2623 1474
17889 2653 1496
17854 2676 1513
17852 2703 1533
17865 2732 1554
17848 2757 1573
17808 2778 1590
17771 2799 1607
17775 2827 1627
17753 2849 1645
17779 2880 1668
17995 2942 1709
18036 2975 1734
17793 2961 1731
17736 2977 1745
17737 3003 1765
17849 3047 1797
17832 3070 1816
17794 3088 1832
17859 3125 1859
17885 3154 1882
17954 3191 1910
17897 3206 1924
21011 3792 2283
21037 3826 2310
21019 3850 2332
20997 3875 2354
20987 3901 2377
20966 3925 2398
20966 3952 2422
20942 3975 2444
20942 4001.9998 2467
20920 4025 2488
20915 4051 2512
20906 4074.9998 2535
20882 4097 2556
20876 4122 2578
20862 4145 2600
20862 4170 2624
20849 4193 2645
20831 4214 2667
20808 4235 2687
20658 4229 2691
20449 4210 2687
20325 4208 2694
20106 4186 2687
19939 4174 2687
19764 4160 2685
19646 4157 2691
19472 4142 2689
19441 4157 2707
19447 4180 2729
19445 4200 2750
19447 4222 2772
19461 4246 2795
19498 4275 2822
19587 4314 2856
19907 4405 2924
20514 4561 3036
20685 4619 3083
20719 4648 3111
20854 4699 3154
24234 5485 3691
24253 5513 3720
24328 5553 3758
24294 5568 3778
25475 5863 3989
25713 5942 4053
25808 5986 4094.9998
25797 6007 4120
25807 6033 4149
25818 6058 4177
25811 6079 4203
25797 6098 4226
25788 6117 4252
25787 6139 4278
25774 6157 4302
25754 6173 4324
25776 6199 4354
25755 6215 4376
25745 6233 4400
28389 6895 4881
28325 6902 4898
28220 6897 4907
28098 6887 4913
27973 6878 4918
27822 6860 4919
27788 6871 4940
27782 6890 4965
27744 6898 4984
27740 6917 5010
27775 6943 5043
27774 6962 5068
27736 6969 5087
27688 6974 5103
27695 6993 5129
27710 7014 5157
27699 7027 5180
27714 7047 5208
27726 7066 5235
27715 7079 5257
27718 7095 5282
27725 7111 5308
27731 7127 5332
27751 7146 5361
27748 7160 5383
27750 7174 5407
27758 7189 5432
27771 7206 5457
27773 7218 5480
27765 7229 5502
27774 7243 5526
27774 7255 5548
27792 7271 5574
27776 7277 5593
27799 7294 5619
27799 7305 5640
27811 7318 5664
27850 7338 5693
27829 7342 5710
27828 7350 5730
27815 7356 5748
27831 7369 5771
27896 7394 5805
28014 7433 5850
28090 7460 5885
28128 7478 5913
28151 7491 5937
28145 7496 5956
28165 7507 5979
28134 7505 5991
28139 7512 6010
28132 7515 6027
28128 7519 6044
28131 7524 6063
28123 7527 6078
28131 7532 6098
28136 7538 6116
28106 7533 6126
28104 7535 6142
28091 7534 6156
28075 7533 6169
28070 7533 6183
28069 7535 6198
28057 7533 6211
28042 7530 6223
28047 7532 6239
28047 7532 6253
28024 7526 6262
28060 7535 6285
28025 7525 6291
28024 7524 6303
28015 7521 6315
28067 7533 6340
28046 7525 6348
28039 7521 6359
28052 7522 6374
28028 7513 6380
28018 7507 6390
28023 7505 6403
28036 7504 6417
28018 7496 6423
27997 7486 6429
28013 7485 6444
47735 12746 10998
47738 12738 11014
47703 12718 11024
47730 12716 11045
47751 12710 11066
47721 12691 11074
47759 12689 11098
47791 12686 11118
47800 12675 11134
47794 12660 11146
47794 12645 11159
47823 12639 11177
47860 12634 11198
47881 12623 11214
47881 12607 11225
47895 12595 11238
47871 12571 11243
47885 12557 11256
47871 12535 11262
27905 7296 6569
27808 7259 6551
27766 7237 6545
27805 7235 6559
27769 7214 6554
27782 7205 6561
27769 7189 6561
27759 7174 6561
27779 7165 6569
27767 7149 6569
27770 7135 6571
27764 7120 6571
27769 7107 6574
27798 7100 6582
27746 7071 6571
27786 7066 6582
27777 7049 6579
27795 7037 6584
27770 7015 6578
27734 6988 6569
27761 6979 6575
27770 6964 6576
27785 6951 6578
27769 6929 6573
27767 6911 6570
27777 6896 6570
27769 6875 6566
27768 6856 6563
27786 6842 6564
27774 6820 6558
27786 6804 6557
27802 6788 6557
27815 6772 6556
27788 6745 6545
27800 6727 6543
27808 6708 6540
27806 6687 6534
27804 6665 6528
27798 6642 6521
27813 6624 6518
27827 6606 6515
27834 6585 6510
27841 6564 6504
27827 6538 6494
27847 6519 6491
27833 6493 6479
27827 6468 6470
27835 6446 6463
27835 6423 6454
27847 6402 6448
27856 6379 6440
27879 6360 6436
27862 6331 6422
27856 6305 6411
27860 6280 6401
27872 6257 6393
27887 6235 6385
27884 6208 6373
27882 6181 6361
27904 6160 6354
27899 6132 6340
27902 6105 6329
27899 6077 6315
27911 6052 6304
27921 6027 6293
27948 6005 6286
27943 5976 6270
27937 5946 6254
27963 5924 6245
27954 5893 6228
27971 5868 6217
27979 5840 6203
27966 5808 6185
27992 5784 6174
27982 5753 6156
27999 5727 6143
28002 5697 6126
28013 5669 6111
28030 5642 6097
28026 5610 6078
28022 5579 6059
28029 5550 6042
28049 5523 6028
27921 5465 5982
27900 5430 5958
27857 5390 5929
27846 5357 5907
27821 5321 5882
27828 5290 5863
27824 5257 5842
27829 5226 5823
27852 5198 5806
27856 5166 5785
27865 5135 5765
27865 5102 5743
27880 5072 5725
27877 5038 5702
27892 5008 5682
27882 4973 5657
27910 4944 5639
27889 4908 5611
27913 4878 5592
27930 4846 5571
27936 4813 5548
27946 4780 5525
27918 4741 5494
27933 4710 5472
27988 4684 5457
28030 4656 5440
28056 4625 5418
28088 4595 5397
28135 4568 5379
28168 4538 5359
28158 4501 5329
28201 4472 5309
28217 4438 5285
28211 4402 5256
27998 4333 5188
27939 4288 5148
27927 4250 5117
27832 4201 5071
27825 4164 5041
27817 4127 5010
27816 4090.0002 4980
27809 4053 4949
27801 4015.9998 4917
27786 3978 4884
27794 3943 4855
27786 3905 4821
27778 3867 4788
27876 3844 4774
27857 3804 4738
27858 3768 4707
28151 3771 4723
28237 3746 4705
28219 3706 4669
28214 3668 4634
28198 3628 4598
24340 3099 3939
24342 3067 3910
24363 3037 3884
24367 3005 3854
24358 2972 3823
24324 2936 3787
24378 2910 3765
24376 2877 3733
24365 2843 3700
24271 2800 3655
23971 2734 3579
22341 2518 3307
22251 2478 3263
22163 2438 3221
22195 2412 3196
22211 2384 3169
22286 2363 3150
22290 2333 3121
22303 2305 3092
22284 2274 3059
22277 2243 3028
22276 2213 2997
22292 2185 2968
22300 2156 2938
22304 2128 2907
22336 2101 2879
22390 2075 2854
22425 2049 2827
22455 2023 2799
22465 1994 2767
22458 1964 2734
22318 1921 2684
17429 1477 2070
17370 1450 2038.0001
17313 1422 2005.0001
17289 1397 1977
17311 1376 1954
17311 1353 1927
17346 1334 1905
17352 1311 1879
17349 1289 1853
17344 1266 1825
17357 1244 1800
17365 1222 1774
17419 1203 1752
17453 1183 1728
17477 1162 1703
17486 1140 1676
17468 1116 1647
17498 1095 1622
17508 1073 1594
17510 1051 1567
17523 1029 1539
17512 1006.0001 1509
17503 984 1480
17543 963 1455
17520 940 1425
17575 921 1400
17565 898 1371
17505 873 1336
17278 840 1290
17149 813 1252
17047 787 1216
16902 759 1178
16745 731 1139
16680 708 1106
16550 682 1069
16379.999 655 1029
16257.999 630 995
16115 605 958
16075.001 584 927
15959 560 893
15846 537 859
15722 514 825
15601 491 791
15488 469 758
15345 447 725
15257 426 694
15169 406 662
15111 387 633
14971 366 601
14853 345 569
14765 326 539
14653 307 509
14560 288 479
11926 222 371
11847 207 347
11798 193 324
11767 180 303
11763 166 281
11766 153 260
11774 141 239
11793 127.00001 217
11784 115 196
11785 102 174
11681 88 151
11610 75 128
11525 62 106
11441 50 84
11372 37 62
11306 25 41
11229 13 20
11160 1 0
11083 -9 -21
10980 -20 -41
10775 -31 -60
10528 -41 -79
10395 -51 -97
10378 -61 -117
10385 -72 -137
10382 -82 -156
10394 -93 -176
10383 -103 -196
10395 -113 -215
10402 -123 -235
10417 -133 -256
10426 -143 -276
10430 -153 -296
10449 -163 -316
10455 -173 -336
10456 -183 -356
10461 -193 -376
10469 -202 -396
10477 -212 -417
10485 -222 -438
10487 -231 -458
10499 -241 -478
10497 -250 -499
10510 -259 -520
10521 -269 -540
10515 -278 -560
10574 -288 -584
10545 -297 -603
10532 -305 -622
10546 -314 -643
10552 -323 -664
10561 -332 -685
6979 -225 -466
6949 -229 -477
6891 -233 -487
6844 -237 -496
6817 -241 -508.00003
6810 -246 -520
6800 -250.99998 -532
6812 -256 -547
6806 -261 -559
6803 -266 -572
6767 -270 -582
10239 -416 -901
10200 -422 -917
10152 -427 -933
10083 -432 -946
10043 -437 -961
10000 -442 -976
9957 -447 -991
9900 -451 -1005
9839 -455 -1016.9999
9800 -459 -1032
9756 -464 -1046
9713 -468 -1060
9666 -472 -1074
9620 -476 -1087
9576 -480 -1100
9535 -484 -1114
9503 -488 -1129
9462 -492 -1142
9417 -495 -1154
9360 -497 -1165
9319 -501 -1178
9282 -504 -1191
9231 -505.99997 -1202
9203 -510 -1216
9169 -513 -1229
9123 -516 -1239
9072 -518 -1250
9042 -521 -1263
8995 -523 -1273
8974 -526 -1287
8920 -528 -1296
8905 -531 -1310
8864 -533 -1320
8821 -535 -1330
8731 -534 -1333
8468 -522 -1308
8337 -517 -1304
8237 -515 -1303
8184 -515 -1310
8139 -516 -1318
8093.0005 -517 -1325
8074.0005 -519 -1337
8062.0005 -522 -1349
8071.9995 -525 -1365
8064.9995 -528 -1379
8064 -531 -1393
8069 -535 -1408
8076 -539 -1424
8080 -542 -1439
8102 -546 -1457
8081.0005 -548 -1468
8076 -550 -1481
8095.9995 -555 -1499
8101 -558 -1514
8102.9995 -561 -1529
8097 -563 -1542
8067.0005 -563 -1550
8033 -564 -1558
8020.0005 -565 -1569
7976 -564 -1574
7889 -560 -1571
7918 -565 -1590
7854 -562 -1590
7870 -566 -1607
7843 -566 -1615
7842 -568 -1628
7821 -568 -1636
7775 -567 -1640
7773 -569 -1652
7741 -568 -1658
7725 -569 -1668
7689 -568 -1672
7677 -568 -1682
7645 -568 -1688
7620 -567 -1694
7598 -567 -1701
7587 -567 -1711
7551 -566 -1715
7497 -563 -1715
7491 -564 -1725
7489 -565 -1737
7467 -565 -1743
7406 -561 -1740
7380 -560 -1746
7382 -562 -1758
7370 -562 -1766
7345 -561 -1771
7314 -559 -1775
7301 -559 -1783
7302 -560 -1793
7282 -559 -1799
7267 -558 -1806
7261 -558 -1815
7258 -559 -1825
7230 -557 -1829
7151 -552 -1819
7178 -554 -1836
7149 -552 -1839
7127 -551 -1843
7107 -550 -1848
7088 -549 -1853
7070 -547 -1858
7061 -547 -1865
7036 -545 -1868
6987 -541 -1865
6984 -541 -1873
6975 -541 -1880
6959 -539 -1885
6938 -538 -1888
6929 -537 -1895
6908 -535 -1898
6902 -534 -1905
6882 -533 -1908
6876 -532 -1915
6840 -529 -1914
6831 -528 -1920
6830 -527 -1928
6815 -526 -1932
6800 -524 -1935
6769 -522 -1935
6780 -522 -1946
6755 -519 -1947
6732 -517 -1948
6736 -517 -1956
6720 -515 -1959
6695 -512 -1960
6671 -510 -1960
6672 -509 -1967
6675 -509 -1976
6657 -507.00003 -1978
6630 -504 -1976
6635 -503.00003 -1985
6632 -501.99997 -1991
6621 -500 -1995
6619 -499 -2000
6608 -497 -2004
6584 -494 -2003
6563 -492 -2003
6555 -490 -2007
6547 -488 -2010.9999
6552 -488 -2017.9999
6531 -485 -2017.9999
6524 -483 -2022.0001
6494 -480 -2017.9999
6492 -479 -2023.9999
6479 -476 -2025.0001
6480 -475 -2030.9999
6449 -472 -2027
6466 -472 -2037
6441 -468 -2035.0001
6444 -467 -2040.9999
6434 -465 -2043
6422 -463 -2043.9999
6426 -462 -2050
6406 -459 -2049
6414 -458 -2056
6412 -456 -2060
6398 -453 -2060
6396 -452 -2064
6382 -449 -2064
6363 -446 -2062
6363 -445 -2066
6373 -444 -2073
6369 -442 -2076
6355 -439 -2075
6343 -436 -2075
6350 -435 -2081
6331 -432 -2079
6324 -430 -2080
6319 -428 -2082
6318 -426 -2085
6314 -424 -2087
6310 -421 -2089
6299 -419 -2088
6289 -416 -2088
6282 -414 -2089
6291 -413 -2095
