# .PCD v0.7 - Point Cloud Data file format
VERSION 0.7
FIELDS x y z
SIZE 4 4 4
TYPE F F F
COUNT 1 1 1
WIDTH 3036
HEIGHT 1
VIEWPOINT 0 0 0 1 0 0 0
POINTS 3036
DATA ascii
15941 -1649 2346
15934 -1670 2367
15853 -1682 2376
15899 -1708 2404
15882 -1726 2423
15799 -1738 2431
15854 -1765 2460
15886 -1789 2485
23484 -2676 3705
23495 -2707 3736
23520 -2741 3770
24340 -2869 3933
24682 -2941 4020
24705 -2976 4054
24690 -3007 4083.0002
28308 -3485 4716
28248 -3514 4740
28194 -3544 4765
28266 -3590 4812
28285 -3628 4848
28307 -3668 4886
28367 -3712 4929
28464 -3760 4978
28442 -3794 5007
28314 -3813 5017
28157 -3828 5021
28070 -3852 5038
27996 -3878 5056
27926 -3904 5074
27926 -3940 5105
27984 -3984 5146
29951 -4302 5540
30022 -4350 5585
30000 -4385 5613
29978 -4419 5640
30058 -4469 5687
0 0 0
0 0 0
0 0 0
0 0 0
0 0 0
0 0 0
0 0 0
0 0 0
0 0 0
0 0 0
0 0 0
0 0 0
0 0 0
29039 -4819 5888
29037 -4853 5913
0 0 0
0 0 0
0 0 0
0 0 0
0 0 0
0 0 0
0 0 0
0 0 0
0 0 0
0 0 0
0 0 0
0 0 0
31279 -5704 6704
31206 -5725 6712
31112 -5744 6715
31062 -5769 6727
30921 -5778 6719
30853 -5799 6726
30961 -5854 6771
31047 -5904 6812
30968 -5922 6815
30955 -5954 6833
30921 -5981 6846
49093 -9548 10900
48593 -9504 10820
48462 -9530 10823
27863 -5508 6240
27866 -5539 6257
27876 -5569 6276
27992 -5621 6319
28072 -5666 6352
28343 -5750 6430
28370 -5784 6451
0 0 0
0 0 0
29595 -6123 6778
29499 -6133 6771
29497 -6162 6785
0 0 0
0 0 0
0 0 0
0 0 0
30455 -6508 7077
28897 -6202 6728
28869 -6223 6734
28843 -6245 6740
0 0 0
44444 -9703 10421
44555 -9766 10465
44463 -9786 10460
44521 -9838 10490
44516 -9876 10504
44586 -9930 10536
44533 -9956 10539
44530 -9993 10552
44522 -10029 10564
28927 -6540 6872
28885 -6555 6871
28903 -6582 6883
27194 -6215 6484
0 0 0
29121 -6701 6958
0 0 0
0 0 0
0 0 0
30113 -7022 7222
0 0 0
0 0 0
30113 -7089 7239
30063 -7099 7231
30084 -7126 7241
30060 -7140 7240
30166 -7186 7269
0 0 0
49097 -11763 11842
49169 -11812 11865
49127 -11834 11859
49117 -11862 11861
49069 -11882 11853
49101 -11920 11863
49095 -11949 11864
49114 -11983 11870
49109 -12012 11870
49075 -12032 11863
49088 -12062 11867
49086 -12090 11866
49093 -12119 11867
49063 -12138 11858
49124 -12179 11872
0 0 0
0 0 0
0 0 0
0 0 0
0 0 0
0 0 0
0 0 0
0 0 0
29005 -7315 6987
28864 -7292 6949
28903 -7314 6954
28893 -7324 6946
28909 -7339 6946
28873 -7341 6932
0 0 0
0 0 0
0 0 0
0 0 0
0 0 0
46206 -11846 11034
46156 -11847 11012
46166 -11863 11002
46208 -11887 10999
0 0 0
0 0 0
0 0 0
0 0 0
0 0 0
46187 -11952 10909
46185 -11961 10894
0 0 0
0 0 0
0 0 0
0 0 0
0 0 0
0 0 0
0 0 0
0 0 0
0 0 0
0 0 0
0 0 0
0 0 0
0 0 0
29624 -7725 6817
29650 -7733 6809
29687 -7744 6803
29662 -7738 6782
29680 -7743 6772
29699 -7748 6761
29646 -7734 6733
29701 -7747 6729
29702 -7747 6713
29691 -7742 6694
29715 -7747 6683
26667 -6950 5982
26624 -6937 5957
26600 -6928 5936
26639 -6935 5930
26621 -6928 5909
26631 -6927 5895
26624 -6922 5877
26635 -6920 5863
26629 -6915 5844
26651 -6916 5832
26652 -6911 5815
26635 -6902 5793
26650 -6900 5778
26677 -6901 5766
26642 -6885 5740
26645 -6880 5722
0 0 0
0 0 0
0 0 0
0 0 0
0 0 0
0 0 0
0 0 0
0 0 0
0 0 0
0 0 0
0 0 0
0 0 0
28128 -7145 5766
28119 -7132 5742
28093 -7114 5713
28045 -7090 5681
0 0 0
26507 -6678 5325
26450 -6652 5291
26428 -6633 5265
26422 -6619 5242
26386 -6598 5211
26398 -6587 5191
26394 -6573 5167
26396 -6560 5144
26391 -6544 5121
26398 -6531 5098
26398 -6517 5075
26416 -6507 5054
26437 -6496 5034
26426 -6477 5008
26438 -6465 4986
26449 -6451 4963
26466 -6438 4942
26488 -6427 4921
26508 -6415 4900
26525 -6401 4878
26546 -6389 4856
26566 -6375 4834
26569 -6358 4808
26595 -6345 4787
26567 -6320 4756
26559 -6299 4728
26526 -6271 4696
26521 -6250 4668
26516 -6229 4642
26514 -6208 4614
26521 -6189 4589
26516 -6167 4561
26529 -6149 4535
26525 -6126 4507
24874 -5724 4201
24817 -5691 4166
24845 -5676 4145
25032 -5697 4150
24879 -5641 4099
24877 -5619 4072
24864 -5594 4043.0002
24866 -5572 4017.0002
24859 -5548 3989
24806 -5513 3954
24731 -5474 3916
24433 -5385 3842
24123 -5293 3767
23794 -5198 3690
23642 -5142 3640
23457 -5079 3586
22016 -4745 3342
22050 -4730 3323
21923 -4681 3280
21838 -4640 3243
21812 -4613 3215
21803 -4588 3190
21821 -4569 3168
21826 -4547 3145
19576 -4057.0002 2798
19590 -4039 2778
19562 -4012 2752
19587 -3995 2733
19591 -3974 2712
19554 -3944 2684
19622 -3936 2672
19650 -3919 2652
19650 -3896 2630
19640 -3871 2606
19577 -3836 2575
19093 -3718 2490
18484 -3578 2390
18306 -3521 2345
18262 -3491 2319
18209 -3459 2291
18211 -3436 2270
18263 -3423 2256
18241 -3396 2232
18254 -3376 2212
18269 -3355 2192
18270 -3332 2171
18293 -3313 2153
18301 -3291 2133
18288 -3264 2110
18303 -3243 2090
18313 -3220 2070
18307 -3195 2048
18250 -3160 2020
18303 -3145 2005.0001
18279 -3116 1981
18318 -3098 1964
18322 -3074 1943
18325 -3049 1922
18319 -3022 1900
18338 -2999 1881
18368 -2978 1863
18410 -2958 1845
18420 -2933 1824
18420 -2907 1803
18449 -2885 1784
18373 -2846 1755
18383 -2820 1735
18428 -2800 1718
18446 -2775 1698
18446 -2748 1676
18355 -2707 1646
18143 -2648 1607
18080 -2612 1580
17998 -2573 1553
17843 -2523 1519
17746 -2482 1490
17694 -2447 1465
17572 -2403 1434
17510 -2367 1409
17404 -2325 1381
17340 -2289 1355
17200 -2243 1325
16415 -2114 1246
16179.001 -2058 1210
16125 -2025.0001 1187
15965 -1979 1157
15780 -1930 1126
15760 -1902 1106
15717 -1871 1086
15691 -1842 1066
15660 -1812 1046
15643 -1785 1028
15612 -1755 1008
15563 -1723 988
15506 -1691 967
15512 -1666 950
15459 -1634 930
15469 -1608 914
15428 -1578 894
15372 -1546 875
15357 -1518 857
15310 -1487 838
15318 -1461 822
15296 -1433 804
15257 -1402 785
15219 -1372 767
15195 -1343 750
15156 -1313 732
15134 -1284 715
15108 -1255 697
15067 -1225 680
15038 -1195 663
15006 -1166 646
14969 -1136 629
14926 -1106 611
14879 -1075 594
14853 -1046 578
14802 -1016.0001 561
14747 -985 543
14674 -953 526
14575 -919 507.00003
11921 -730 403
11909 -707 391
11778 -677 375
11820 -658 364
11835 -637 353
11808 -613 341
11811 -591 330
11811 -569 318
11806 -546 306
11800 -524 295
11794 -501 284
11814 -479 273
11803 -456 261
11808 -434 250
11823 -411 240
11812 -388 229
11818 -366 218
11814 -343 207
11811 -320 196
11786 -297 185
11777 -274 175
11736 -250 164
11680 -227 153
11634 -203 142
11608 -180 131
11594 -156 121
11508 -133 110
11511 -110 100
11481 -87 90
11429 -64 80
11409 -42 70
11373 -19 61
11339 3 51
11308 25 42
11292 48 33
11273 70 24
11237 92 15
11214 114 6
11180 136 -2
11146 158 -11
11119 180 -20
11096 202 -28
11067 223 -36
10984 244 -44
10971 265 -52
10875 285 -60
10840 306 -68
10742 325 -75
10659 343 -82
10600 363 -89
10515 381 -96
10434 399 -102
10392 418 -109
10369 438 -115
10367 459 -122
10358 480 -129
10349 500 -136
10341 521 -143
10345 542 -150
10343 563 -156
10341 584 -163
10341 605 -169
10341 626 -176
10344 647 -182
10350 668 -188
10339 688 -194
10343 710 -201
10336 730 -206
10338 751 -212
10343 773 -218
10337 793 -224
10341 814 -230
10362 836 -236
10361 857 -242
10400 882 -248
10408 904 -254.00002
10433 927 -260
10439 948 -266
10454 971 -271
10478 994 -277
10491 1016.0001 -282
10502 1039 -288
10518 1061 -293
10531 1083 -298
10553 1107 -304
10570 1130 -309
10582 1152 -314
10587 1174 -319
10613 1198 -324
10634 1222 -330
10648 1244 -335
10665 1268 -339
10671 1290 -344
10689 1313 -349
10710 1337 -354
10725 1360 -358
10738 1383 -363
10676 1396 -365
10788 1431 -372
10804 1455 -377
10817 1478 -381
10827 1500 -385
10845 1524 -389
10859 1547 -393
10866 1569 -397
10896 1595 -401
10908 1618 -405
10931 1642 -409
10932 1663 -412
10958 1689 -417
10967 1711 -420
10984 1735 -424
10996 1758 -427
11016 1782 -431
11025 1805 -434
11049 1829 -438
11064 1853 -441
11070 1875 -443
11097 1900 -447
11109 1923 -450
11173 1955 -455
11132 1969 -455
11165 1995 -459
11174 2017.9999 -462
11195 2042 -464
11195 2063 -466
11228 2090 -470
11235 2112 -472
11258 2137 -474
11261 2158 -476
11296 2185 -479
11301 2207 -481
11318 2230 -484
11339 2255 -486
11336 2274 -487
11352 2298 -489
11382 2324 -491
11379 2344 -493
11410 2370 -495
11417 2392 -496
11443 2417 -498
11466 2442 -500
11461 2460 -501
11477 2484 -501.99997
11502 2509 -504
11502 2528 -505
11528 2554 -507.00003
11532 2574 -507.00003
11554 2599 -508.00003
11567 2621 -509
11584 2645 -510
11602 2668 -510.99997
11596 2685 -510.99997
11601 2706 -510.99997
11590 2722 -510.99997
11627 2750 -513
11639 2771 -513
11654 2793 -514
11644 2810 -513
11641 2828 -512
11620 2841 -510.99997
11621 2860 -510.99997
11659 2888 -512
11636 2900 -510
11615 2913 -509
11651 2940 -510
11633 2953 -508.00003
11617 2966 -507.00003
11623 2986 -505.99997
11648 3009 -505.99997
11657 3029 -505.99997
11664 3048 -505
11646 3061 -503.00003
11649 3079 -501.99997
11645 3094 -501
11665 3116 -500
11682 3138 -500
11656 3147 -497
11674 3168 -497
11686 3188 -496
11667 3199 -493
11654 3212 -491
11684 3236 -491
11690 3254 -489
11689 3270 -488
11712 3292 -487
11713 3308 -485
11711 3322 -483
11713 3338 -481
11719 3355 -479
11753 3380 -479
11742 3392 -476
11733 3404 -474
11749 3423 -472
11770 3444 -471
11756 3454 -468
11750 3467 -465
11780 3490 -464
11783 3504 -462
11802 3524 -460
11823 3544 -458
11800 3551 -455
11818 3570 -453
11823 3585 -450
11836 3602 -448
11848 3619 -446
11836 3628 -443
11869 3651 -441
11887 3669 -439
11892 3684 -436
11877 3691 -432
11885 3706 -430
11888 3719 -427
11903 3735 -424
11934 3757 -423
11933 3769 -419
11954 3787 -417
11949 3797 -413
11982 3818 -411
11983 3830 -408
11977 3839 -404
11993 3855 -401
12018 3874 -399
12025 3886 -395
12022 3896 -392
12061 3919 -389
12053 3926 -385
12064 3940 -382
12083 3956 -379
12097 3970 -376
12116 3986 -373
12115 3995 -369
12118 4005 -365
12116 4013 -361
12139 4030.0002 -358
12152 4041.9998 -354
12160 4054 -351
12163 4063.0002 -347
12168 4073 -343
12175 4083.0002 -339
12177 4092 -336
12190 4104 -332
12199 4114 -328
12193 4120 -324
12209 4132 -320
12215 4141 -316
12237 4156 -312
12240 4163 -308
12252 4174 -304
12265 4185 -300
12276 4195 -296
12275 4200 -291
12286 4210 -287
12298 4220 -283
12315 4231 -279
12340 4245 -275
12335 4249 -270
12338 4254 -266
12358 4266 -262
12367 4274 -258
12390 4287 -252.99998
12388 4290 -249
12386 4293 -244
12408 4305 -240
12426 4315 -236
12433 4321 -231
12438 4326 -226
12456 4336 -222
12476 4346 -218
12489 4353 -213
12508 4362 -209
12520 4369 -204
12536 4377 -200
12530 4377 -195
12549 4385 -190
12552 4388 -185
12559 4392 -181
12526 4382 -175
12541 4389 -171
12558 4396 -166
12561 4398 -161
12560 4398 -156
12551 4395 -151
12562 4400 -146
12559 4398 -141
12576 4404 -137
12572 4403 -132
12558 4397 -127.00001
12567 4400 -121
12577 4402 -116
12569 4399 -112
12549 4391 -107
12548 4389 -101
12556 4390 -96
12558 4389 -91
12530 4378 -87
12541 4379 -82
12538 4376 -76
12518 4366 -71
12517 4363 -66
12503 4356 -61
12520 4359 -56
12512 4352 -51
12504 4346 -46
12492 4339 -41
12495 4336 -37
12491 4331 -32
12487 4325 -26
12476 4317 -21
12467 4309 -17
12478 4309 -12
12468 4300 -7
12462 4294 -2
12457 4287 2
12447 4278 7
12450 4274 12
12435 4262 16
12435 4257 22
12433 4250 26
12417 4238 31
12406 4228 36
12402 4220 41
12386 4208 46
12396 4204 51
12393 4197 55
12368 4181 60
12362 4171 64
12350 4160 69
12346 4151 74
12335 4139 79
12332 4130 83
12324 4119 88
12310 4106 93
12299 4093.9998 97
12294 4083.0002 102
12284 4071 106
12268 4056.0002 111
12262 4045 115
12249 4032 119
12245 4020 124
12237 4008 129
12234 3998 133
12222 3984 137
12193 3964 141
12188 3952 145
12173 3937 150
12178 3928 154
12186 3920 158
12170 3903 162
12143 3884 166
12136 3871 170
12133 3858 174
12112 3840 178
12102 3825 182
12088 3809 186
12089 3797 191
12077 3782 195
12068 3767 198
12057 3751 202
12034 3731 206
12040 3720 209
12019 3701 213
12017 3688 217
11994 3668 220
11977 3649 224
11975 3635 228
11966 3619 231
11964 3604 235
11927 3580 238
11922 3564 241
11908 3546 245
11906 3532 248
11891 3512 252
11889 3498 255
11876 3479 258
11846 3456 261
11838 3439 264
11834 3422 267
11827 3406 270
11811 3386 273
11820 3373 276
11816 3357 279
11823 3343 283
11821 3327 286
11826 3312 289
11855 3305 293
11897 3300 297
11970 3304 301
12003 3297 305
12052 3293 309
12124 3296 314
12159 3288 318
12217 3287 322
12245 3277 326
12288 3270 329
12381 3277 335
12384 3260 337
12460 3262 342
12464 3245 345
12470 3227 347
12483 3212 350
12511 3201 353
12511 3182 356
12507 3161 358
12523 3146 361
12493 3119 362
12539 3111 365
12547 3094 368
12525 3068 369
12570 3060 372
12555 3036 374
12593 3025 377
12595 3005 378
12592 2984 380
12613 2968 383
12589 2942 383
12599 2924 385
12598 2903 387
12620 2887 389
12609 2863 390
12620 2845 392
12623 2824 393
12614 2801 394
12624 2781 395
12631 2762 397
12633 2740 398
12643 2720 399
12651 2700 400
12637 2675 400
12655 2656 402
12655 2634 402
12647 2610 403
12654 2589 403
12651 2566 404
12663 2546 405
12677 2526 405
12687 2505 406
12686 2482 406
12682 2458 406
12677 2434 406
12670 2409 406
12670 2386 406
12656 2360 405
12643 2334 405
12647 2311 404
12639 2286 403
12627 2261 403
12622 2236 402
12617 2211 401
12605 2185 400
12603 2161 399
12590 2134 398
12587 2110 397
12597 2088 396
12586 2063 395
12591 2039 394
12570 2012.0001 392
12597 1991 392
12594 1966 390
12569 1939 388
12573 1915 386
12554 1887 384
12553 1863 382
12549 1837 381
12541 1812 378
12513 1783 376
12515 1759 374
12506 1733 371
12471 1703 368
12462 1678 365
12436 1649 362
12431 1624 360
12427 1599 357
12392 1569 354
12381 1543 351
12358 1516 347
12361 1491 344
12342 1464 341
12334 1438 338
12318 1412 334
12299 1385 331
12280 1357 327
12260 1330 323
12247 1304 319
12245 1279 316
12206 1250 311
12193 1224 307
12194 1199 304
12169 1172 299
12160 1146 295
12129 1118 290
12130 1094 286
12101 1066 282
12092 1041 277
12083 1015 273
12062 988 268
12053 963 263
12043 937 259
12029 912 254.00002
11999 885 249
11987 859 244
11965 833 238
11965 808 233
11948 782 228
11932 756 223
11909 730 217
11913 706 212
11893 680 206
11875 654 201
11850 629 195
11848 604 189
11828 578 183
11793 553 177
11779 527 171
11765 501.99997 165
11743 477 159
11727 452 153
11703 427 147
11662 401 140
11644 377 134
11627 352 127.00001
11607 328 121
11562 303 114
11545 278 107
11560 255 101
11519 230 94
11472 206 87
11437 182 80
11425 158 74
11411 135 67
11380 111 60
11366 88 53
11333 65 46
11308 41 39
11286 18 31
11260 -4 24
11228 -27 17
11205 -50 10
11174 -72 2
11157 -95 -4
11132 -117 -11
11108 -139 -19
11072 -161 -26
11003 -183 -34
10947 -204 -41
10864 -225 -49
10786 -245 -56
10719 -265 -63
10608 -284 -70
10484 -301 -77
10436 -321 -84
10413 -341 -92
10402 -361 -99
10391 -382 -107
10400 -402 -115
10398 -423 -123
10399 -444 -131
10408 -464 -139
10416 -485 -147
10420 -505.99997 -155
10414 -526 -163
10414 -547 -171
10414 -567 -180
10406 -587 -188
10401 -607 -196
10392 -627 -205
10382 -646 -213
10370 -666 -222
10362 -685 -230
10352 -704 -238
10335 -723 -247
10336 -743 -255
10336 -762 -264
10313 -780 -273
10303 -799 -281
10302 -818 -290
10283 -836 -298
10274 -855 -307
10270 -874 -316
10259 -892 -325
10260 -911 -334
10249 -930 -343
10241 -948 -352
10238 -967 -361
10228 -984 -370
10226 -1003 -379
10231 -1021.9999 -389
10240 -1042 -399
10246 -1061 -408
10260 -1081 -419
10252 -1099 -428
10258 -1118 -438
10271 -1138 -448
10272 -1157 -458
10271 -1174 -467
10279 -1194 -478
10287 -1213 -488
10285 -1231 -498
10296 -1250 -508.00003
10293 -1268 -518
10291 -1285 -528
10297 -1304 -538
10306 -1323 -549
10322 -1342 -560
10312 -1359 -569
10311 -1376 -580
10328 -1396 -591
10333 -1414 -601
10327 -1431 -611
10336 -1449 -622
10336 -1467 -632
10350 -1486 -644
7010 -1018 -443
7009 -1029 -450
6991 -1038 -456
6975 -1047 -462
6938 -1052 -466
6918 -1060 -472
6904 -1070 -478
6884 -1077 -484
6883 -1088 -491
6880 -1099 -498
6846 -1104 -501.99997
6841 -1114 -509
6834 -1124 -516
6850 -1137 -524
6838 -1145 -530
6832 -1155 -536
6848 -1168 -545
6850 -1178 -552
6834 -1186 -558
6862 -1201 -567
6862 -1211 -574
10266 -1827 -870
10254 -1840 -880
10206 -1846 -887
10194 -1859 -896
10153 -1866 -903
10127 -1876 -911
10111 -1887 -920
10073 -1894 -928
10054 -1905 -936
10037 -1916 -945
10007 -1924 -953
9984 -1933 -961
9938 -1938 -967
9899 -1944 -973
9872 -1951 -981
9846 -1960 -989
9826 -1969 -997
9792 -1975 -1003.9999
9787 -1986 -1013
9761 -1994 -1021
9745 -2003 -1030
9717 -2010 -1037
9697 -2017.9999 -1045
9670 -2023.9999 -1052
9632 -2028.0001 -1058
9613 -2036 -1065
9594 -2043.9999 -1073
9579 -2052 -1082
9548 -2057 -1088
9512 -2060 -1093
9499 -2069 -1102
9466 -2073 -1108
9452 -2081 -1116
9429 -2086 -1123
9406 -2092 -1129
9385 -2098 -1136
9362 -2103 -1143
9343 -2109 -1150
9318 -2114 -1156
9290 -2118 -1162
9271 -2123 -1169
9238 -2126 -1175
9227 -2133 -1182
9190 -2134 -1187
9183 -2142 -1195
9159 -2145 -1201
9139 -2150 -1207
9115 -2154 -1214
9099 -2159 -1220
9073 -2162 -1226
9032 -2161 -1229
9015 -2165 -1235
9011 -2173 -1244
8996 -2178 -1250
9007 -2188 -1261
8985 -2191 -1266
8959 -2193 -1271
8935 -2195 -1276
8905 -2195 -1280
8892 -2200 -1287
8863 -2200 -1291
8850 -2205 -1297
8821 -2205 -1301
8800 -2207 -1306
8789 -2211 -1313
8774 -2214 -1318
8764 -2219 -1325
8739 -2219 -1329
8724 -2222 -1335
8703 -2223 -1340
8680 -2224 -1344
8669 -2227 -1350
8652 -2229 -1355
8635 -2231 -1360
8611 -2231 -1363
8597 -2233 -1369
8579 -2234 -1373
8558 -2234 -1377
8550 -2237 -1383
8541 -2240 -1389
8522 -2241 -1393
8501 -2240 -1397
8481 -2240 -1401
8486 -2247 -1409
8455 -2243 -1411
8453 -2248 -1417
8447 -2251 -1423
8412 -2246 -1424
8405 -2248 -1430
8385 -2247 -1433
8368 -2247 -1436
8348 -2246 -1440
8341 -2248 -1445
8329 -2249 -1449
8327 -2252 -1455
8298 -2248 -1456
8291 -2250 -1462
8282 -2250 -1466
8266 -2249 -1469
8250 -2248 -1472
8244 -2250 -1477
8225 -2248 -1480
8210 -2247 -1483
8192 -2245 -1486
8195 -2248 -1492
8179 -2246 -1494
8173.0005 -2247 -1499
8156 -2245 -1501
8134 -2241 -1503
8145.0005 -2247 -1510
8125 -2243 -1512
8106 -2240 -1514
8100.0005 -2240 -1518
8090.9995 -2240 -1521
8081.0005 -2239 -1524
8073 -2238 -1528
8061 -2236 -1530
8057 -2237 -1534
8043 -2234 -1537
8017.9995 -2228 -1537
8014 -2228 -1540
8005.9995 -2227 -1543
7985 -2223 -1544
7976 -2221 -1546
7939 -2211 -1544
7950 -2215 -1550
7962 -2219 -1557
7953 -2217 -1559
7930 -2211 -1559
7935 -2212 -1564
7945 -2215 -1570
7938 -2213 -1572
7937 -2213 -1576
7925 -2210 -1577
7923 -2209 -1581
7929 -2210 -1585
7914 -2206 -1586
7915 -2206 -1590
7908 -2203 -1592
7883 -2196 -1590
7874 -2192 -1592
7852 -2185 -1591
7875 -2191 -1598
7877 -2190 -1602
7877 -2189 -1605
7864 -2184 -1605
7845 -2178 -1604
7846 -2176 -1607
7839 -2173 -1608
7825 -2167 -1608
7834 -2168 -1613
7819 -2163 -1612
7820 -2161 -1615
7820 -2159 -1617
7813 -2155 -1618
7801 -2149 -1618
7797 -2146 -1619
7781 -2139 -1618
7790 -2139 -1622
7795 -2138 -1625
7789 -2134 -1626
7773 -2127 -1624
7786 -2128 -1629
7777 -2123 -1628
7771 -2118 -1629
7772 -2115 -1630
7767 -2111 -1631
7759 -2105 -1631
7760 -2102 -1632
7749 -2096 -1631
7763 -2096 -1635
7752 -2090 -1634
7746 -2085 -1634
7745 -2081 -1634
7748 -2078 -1636
7747 -2074 -1637
7743 -2069 -1636
7752 -2067 -1639
7748 -2062 -1639
7745 -2057 -1639
7746 -2053 -1639
7741 -2046.9999 -1639
7735 -2040.9999 -1638
7748 -2040 -1641
7742 -2033.9999 -1639
7736 -2027 -1638
7736 -2023 -1638
7737 -2017.9999 -1638
7723 -2009.0001 -1635
7738 -2007.9999 -1638
7741 -2004 -1638
7743 -1999 -1639
7745 -1995 -1639
7738 -1987 -1637
7744 -1984 -1637
7752 -1980 -1638
7752 -1974 -1638
7755 -1970 -1637
7747 -1962 -1635
7751 -1957 -1635
7708 -1940 -1624
7720 -1937 -1626
7760 -1941 -1633
7758 -1935 -1631
7778 -1933 -1634
7775 -1926 -1632
7773 -1920 -1630
7775 -1914 -1629
7781 -1909 -1629
7775 -1901 -1626
7790 -1898 -1627
7787 -1890 -1625
7802 -1887 -1626
7799 -1880 -1623
7797 -1872 -1621
7808 -1868 -1621
7819 -1863 -1621
7806 -1853 -1616
7827 -1850 -1618
7831 -1844 -1616
7831 -1836 -1613
7823 -1827 -1609
7838 -1823 -1609
7850 -1819 -1609
7857 -1812 -1608
7842 -1801 -1602
7875 -1801 -1605
7885 -1795 -1604
7900 -1790 -1604
7884 -1779 -1597
7901 -1775 -1598
7890 -1764 -1592
7895 -1757 -1589
7910 -1752 -1589
7906 -1742 -1584
7915 -1736 -1582
7918 -1728 -1579
7917 -1719 -1575
7912 -1710 -1570
7915 -1702 -1566
7908 -1691 -1561
7903 -1682 -1556
7952 -1683 -1561
7964 -1677 -1559
7981 -1671 -1558
7996 -1665 -1556
7994 -1655 -1551
8016 -1651 -1550
8014 -1641 -1545
8028 -1635 -1543
8047 -1629 -1541
8052 -1621 -1537
8064 -1613 -1534
8064 -1604 -1529
8074.0005 -1596 -1526
8087 -1589 -1523
8108 -1583 -1521
8119.0005 -1576 -1518
8133.0005 -1569 -1515
8145.0005 -1561 -1511
8153 -1553 -1507
8168 -1545 -1504
8182 -1538 -1500
8193 -1530 -1496
8159.0005 -1513 -1484
8194 -1509 -1484
8223 -1504 -1483
8239 -1497 -1479
8259 -1490 -1476
8269 -1481 -1471
8289 -1474 -1468
8315 -1468 -1466
8342 -1462 -1463
8356 -1453 -1459
8347 -1441 -1450
8368 -1433 -1447
8377 -1424 -1441
8393 -1415 -1436
8372 -1401 -1425
8430 -1399 -1427
8455 -1392 -1424
8472 -1384 -1419
8484 -1374 -1413
8498 -1365 -1408
8505 -1355 -1401
8512 -1345 -1394
8527 -1336 -1388
8551 -1328 -1384
8589 -1322 -1382
8605 -1313 -1376
8620 -1303 -1370
8644 -1295 -1365
8661 -1286 -1358
8694 -1279 -1354
8714 -1269 -1348
8735 -1260 -1343
8749 -1250 -1335
8780 -1242 -1331
8803 -1233 -1325
8819 -1223 -1317
8842 -1214 -1311
8862 -1205 -1304
8877 -1194 -1297
8899 -1185 -1290
8941 -1178 -1286
8963 -1168 -1279
8983 -1158 -1272
8998 -1147 -1263
9026 -1138 -1257
9048 -1128 -1249
9077 -1119 -1243
9113 -1111 -1237
9123 -1099 -1227
9155 -1090 -1221
9173 -1079 -1212
9200 -1069 -1204
9221 -1058 -1195
9229 -1046 -1185
9263 -1037 -1178
9303 -1028 -1171
9345 -1020 -1165
9378 -1010 -1157
9397 -999 -1147
9431 -989 -1139
9467 -980 -1131
9489 -969 -1122
9529 -959 -1114
9547 -948 -1104
9582 -938 -1095
9612 -927 -1086
9651 -917 -1077
9669 -905 -1066
9687 -893 -1055
9740 -884 -1047
9781 -874 -1038
9802 -862 -1027
9841 -852 -1016.9999
9883 -842 -1008
9933 -832 -999
9949 -819 -987
9978 -808 -975
10019 -797 -965
10060 -786 -954
10097 -775 -943
10108 -761 -930
10149 -750 -919
10191 -739 -908
6849 -487 -600
6802 -474 -586
6822 -466 -577
6824 -457 -567
6811 -447 -556
6809 -437 -545
6806 -427 -535
6812 -418 -525
6825 -410 -515
6879 -403 -509
6909 -396 -500
6901 -386 -489
6941 -379 -481
6963 -370 -472
10573 -548 -700
10567 -534 -683
10569 -519 -666
10558 -505 -649
10556 -490 -632
10544 -475 -614
10534 -461 -597
10534 -447 -580
10523 -432 -562
10523 -419 -545
10513 -404 -528
10517 -390 -510
10498 -376 -492
10502 -362 -475
10490 -348 -457
10480 -334 -439
10476 -320 -421
10471 -306 -403
10470 -293 -386
10457 -279 -368
10455 -266 -350
10449 -252 -333
10434 -238 -314
10429 -225 -296
10422 -212 -278
10416 -199 -260
10402 -185 -242
10407 -172 -224
10396 -159 -206
10400 -146 -187
10380 -133 -169
10379 -120 -151
10380 -108 -133
10385 -95 -115
10429 -83 -97
10653 -72 -81
10849 -60 -63
11017 -48 -44
11088 -35 -25
11137 -22 -5
11245 -8 14
11309 4 35
11390 17 55
11458 30 76
11538 44 97
11609 58 118
11680 72 141
11785 86 163
11784 99 185
11787 112 206
11769 125 227
11768 138 248
11772 152 270
11786 165 292
11799 178 314
11801 191 336
11899 205 360
14549 267 468
14682 285 499
14766 303 530
14891 321 561
15018 340 594
15142 358 627
15192 375 657
15259 393 689
15391 412 723
15546 432 759
15677 451 795
15756 470 829
15923 491 867
16039 510 904
16170 530 941
16257 549 977
16410 570 1016.9999
16512 590 1054
16668 611 1095
16786 632 1135
16842 650 1170
17026 672 1215
17183 695 1258
17381 719 1305
17626 745 1357
17661 763 1393
17621 777 1423
17664 794 1460
17667 810 1494
17654 825 1526
17650 840 1558
17654 856 1592
17622 869 1622
17620 884 1655
17629 900 1689
17639 914 1723
17626 928 1755
17621 943 1787
17644 958 1823
17634 972 1855
17635 986 1889
17655 1001.0001 1924
17636 1014.0001 1955
17618 1027 1986
17614 1040 2019
17887 1070 2084
17648 1069 2089
17698 1085 2128
19433 1206 2373
19497 1224 2418
23121 1469 2911
23172 1489 2961
23176 1506 3005
23210 1524 3052
23243 1542 3100
23255 1559 3145
23252 1575 3188
23186 1586 3222
23208 1603 3268
23188 1617 3308
23196 1633 3352
23196 1648 3395
23160 1660 3432
23177 1675 3477
23211 1692 3524
23235 1708 3569
23269 1724 3617
23269 1738 3660
23305 1754 3708
23378 1773 3762
23603 1804 3841
28851 2222 4746
28836 2236 4796
28812 2250 4844
28794 2265 4893
28773 2278 4941
28776 2294 4992
28763 2308 5041
28997 2341 5134
29456 2393 5267
29443 2407 5316
28869 2374 5264
28723 2376 5288
28737 2391 5341
28717 2403 5388
29244 2460 5537
29694 2512 5674
29840 2538 5753
29860 2552 5808
29837 2563 5855
29808 2573 5901
29802 2585 5949
29779 2595 5996
29805 2610 6052
0 0 0
0 0 0
0 0 0
0 0 0
44964 4022.9998 9507
44636 4010.0002 9512
44542 4017.0002 9566
44504 4028.9998 9631
44500 4044.0002 9702
44453 4054 9765
28381 2597 6280
28338 2602 6316
28357 2613 6366
28330 2619 6406
28342 2628 6454
28321 2635 6494
28295 2640 6533
28270 2645 6572
28263 2652 6615
45787 4309 10788
46314 4370 10983
46371 4387 11068
46364 4398 11137
46375 4409 11211
46443 4427 11297
28188 2693 6899
28210 2701 6946
28133 2699 6969
28164 2708 7019
47909 4616 12011
47887 4622 12076
47860 4628 12139
27954 2708 7130
27950 2712 7170
27949 2716 7209
27942 2721 7248
27906 2721 7278
27920 2727 7320
27888 2727 7351
27867 2729 7384
47701 4677 12705
47685 4680 12766
47685 4685 12831
47641 4686 12883
47605 4686 12937
47609 4691 13001
47570 4691 13053
47568 4694 13115
47566 4698 13176
47516 4696 13223
47532 4700 13289
47509 4700 13342
47477 4699 13393
47468 4701 13448
47439 4699 13498
47432 4700 13555
47431 4700 13612
47412 4699 13663
47381 4698 13711
47378 4697 13766
47366 4694 13817
47347 4693 13865
47341 4693 13918
47321 4690 13966
47295 4686 14011
47287 4683 14061
47268 4679 14107
47266 4678 14157
47230 4672 14197
47231 4669 14248
47204 4663 14289
47196 4659 14336
47197 4657 14384
47179 4651 14426
47155 4645 14466
47157 4640 14513
47136 4634 14553
47143 4631 14600
47119 4623 14637
47113 4617 14680
47087 4609 14715
47091 4603 14760
47063 4595 14794
47073 4590 14838
47052 4582 14873
47039 4573 14909
47019 4564 14942
47014 4556 14980
47004 4549 15015
46985 4539 15047
46991 4533 15086
46980 4523 15120
46978 4515 15156
46986 4507 15194
46944 4494 15216
46934 4485 15246
46940 4476 15282
46915 4464 15307
46926 4454 15344
46898 4442 15367
46908 4433 15401
46909 4424 15432
46895 4411 15457
46874 4400 15479
46889 4388 15513
46873 4377 15536
46856 4364 15558
46863 4352 15587
46845 4339 15608
46853 4327 15636
46849 4314 15660
46824 4299 15676
46839 4289 15704
46817 4274 15720
46812 4260 15741
46812 4248 15762
46804 4234 15780
46819 4221 15806
46788 4204 15815
46785 4190 15833
46772 4174 15847
46781 4162 15867
46788 4147 15887
46778 4132 15900
46763 4115 15911
46775 4102 15930
46792 4087.9998 15950
46756 4068.9998 15951
46765 4054 15968
46765 4038 15980
46747 4020 15986
46739 4002.9998 15994
46752 3989 16009.001
46759 3974 16020
46754 3956 16028
46743 3938 16033.001
46745 3921 16041
46739 3904 16046
46738 3887 16052
46756 3870 16063.999
46752 3854 16068.001
46732 3834 16065.001
46733 3816 16069
46727 3797 16070
46737 3778 16077
46750 3761 16082.001
46721 3740 16073.999
46772 3725 16091
46739 3703 16080
46744 3686 16080
46738 3666 16077
46758 3648 16080.999
46769 3629 16082.001
46770 3609 16079
46772 3589 16075.001
46787 3572 16075.001
46759 3549 16059.999
46771 3531 16056.999
46775 3511 16052
46774 3490 16044.001
46764 3468 16032
46779 3450 16028
46776 3429 16018
46794 3409 16013
46797 3388 16003
46803 3368 15993
46824 3348 15988
46811 3325 15971
46820 3304 15960
46821 3284 15946
46829 3261 15934
46836 3239 15921
46849 3220 15909
46844 3197 15889
46844 3174 15872
46856 3153 15858
46842 3131 15834
46856 3109 15819
46872 3088 15804
46876 3065 15784
46892 3044 15768
46903 3022 15749
46905 2999 15727
46899 2976 15700
46930 2954 15687
46917 2931 15657
46919 2907 15632
46946 2886 15615
46936 2861 15584
46967 2841 15567
46977 2818 15542
46982 2794 15515
46984 2770 15486
47024 2750 15469
47000 2723 15430
47027 2702 15407
47024 2676 15374
47038 2654 15344
47056 2633 15317
47061 2608 15284
47083 2585 15257
47081 2561 15220
47101 2537 15191
47113 2515 15158
47102 2489 15118
47124 2465 15087
47142 2443 15053
47157 2419 15019
47169 2395 14982
47198 2372 14951
47189 2346 14907
47209 2323 14871
47218 2300 14832
47233 2275 14793
47252 2252 14755
47263 2227 14714
47279 2204 14673
47284 2180 14629
47318 2158 14594
47332 2134 14552
47327 2107 14503
47356 2085 14465
47368 2061 14420
47386 2038.0001 14376
47384 2013 14326
47424 1990 14287
47421 1965 14235
47425 1941 14185
47448 1917 14140
47459 1893 14090
47500 1870 14049
47505 1845 13996
47515 1821 13944
47520 1798 13891
47553 1774 13845
47557 1750 13789
47576 1726 13737
47616 1704 13692
47637 1679 13641
47640 1656 13584
47660 1632 13530
47679 1609 13475
47693 1585 13419
47713 1562 13364
47729 1539 13307
47752 1515 13251
47780 1493 13196
47789 1470 13135
47825 1448 13082
47833 1424 13020
47832 1399 12956
47865 1378 12900
47893 1355 12841
27970 778 7461
28025 766 7436
28001 751 7390
28021 738 7355
28052 726 7323
28088 714 7291
28117 701 7258
28135 687 7221
28172 675 7189
48091 1131 12201
48107 1108 12133
48132 1086 12067
48147 1066 11999
48185 1044 11934
48184 1021.9999 11860
48232 1001.0001 11797
48267 980 11730
45623 906 11015
45620 886 10943
45631 866 10873
45654 846 10806
45651 827 10732
45696 808 10669
45731 789 10603
45722 769 10526
45752 751 10459
45787 732 10392
45811 713 10321
45823 695 10247
28532 421 6332
28496 408 6276
28477 397 6224
28499 385 6180
44532 585 9581
44542 568 9505
44570 551 9434
44551 534 9353
0 0 0
0 0 0
0 0 0
0 0 0
0 0 0
0 0 0
0 0 0
0 0 0
0 0 0
23382 197 4494
23394 189 4454
23390 181 4411
23386 173 4367
26929 191 4980
26892 183 4923
26899 174 4874
26907 166 4826
26883 158 4772
26887 150 4722
26792 142 4656
26784 134 4603
26783 126 4552
26782 119 4500
26795 111 4451
26795 104 4400
26736 97 4339
26641 90 4272
26577 83 4210
26510 77 4149
26554 70 4104
26573 64 4054.9998
26581 58 4004.0002
26251 51 3903
25650 44 3763
20155 31 2917
20155 27 2877
20090 22 2828
20130 19 2794
20161 15 2758
20146 11 2716
20075 8 2666
19323 4 2529
18602 1 2397
18480 -1 2344
18425 -4 2300
18400 -7 2260
18366 -9 2218
18354 -12 2179
18345 -14 2140
18316 -16 2100
18285 -18 2059
18307 -20 2023.9999
18305 -22 1985
18294 -24 1947
18298 -26 1910
18278 -27 1870
18236 -29 1828
18259 -30 1792
18242 -31 1753
18242 -32 1715
18200 -33 1673
18225 -34 1638
18233 -35 1600
18173 -35 1557
17903 -35 1496
17682 -35 1441
17514 -35 1391
17360 -35 1342
17230 -34 1296
17081 -34 1249
14793 -29 1050
14648 -29 1008.9999
14628 -28 977
14640 -28 947
14618 -27 914
14647 -26 885
14640 -26 854
14663 -25 825
14635 -24 792
14669 -23 763
14666 -21 732
14694 -20 702
14686 -19 670
14721 -17 640
14722 -16 609
14720 -14 578
14747 -12 547
14698 -10 515
11883 -7 391
11844 -5 364
11807 -3 338
11785 -1 312
11780 0 286
11776 2 262
11794 4 237
11794 6 211
11791 8 186
11713 11 160
11608 13 133
11531 15 108
11431 18 82
11357 20 58
11264 23 33
11195 25 9
11125 28 -14
11021 30 -37
10821 33 -59
10568 35 -80
10390 37 -101
10369 40 -123
10376 43 -145
10384 46 -167
10389 49 -189
10385 52 -211
10390 56 -233
10398 59 -255
10405 62 -277
10412 66 -299
10417 70 -321
10428 73 -344
10435 77 -366
10437 81 -388
10456 85 -411
10450 89 -432
10453 93 -455
10462 97 -477
10483 101 -500
10492 106 -522
10491 110 -544
10497 114 -566
10502 119 -588
10512 123 -610
10530 128 -633
10522 133 -654
10531 138 -677
10526 142 -698
6951 97 -475
6935 100 -488
6863 102 -497
6873 105 -512
6824 108 -522
6796 111 -534
6788 114 -547
6800 118 -562
6779 121 -574
6794 125 -589
6796 128 -602
10199 198 -925
10129 202 -939
10075 206 -954
10026 211 -970
10004 216 -988
9946 220 -1002
9911 225 -1018
9854 229 -1031
9814 234 -1047
9759 238 -1060
9716 242 -1074
9659 247 -1087
9637 252 -1103
9588 256 -1116
9545 261 -1129
9498 265 -1143
9445 270 -1154
9410 274 -1168
9364 279 -1180
9339 284 -1195
9292 288 -1207
9240 293 -1217
9201 297 -1230
9179 302 -1244
9141 307 -1256
9091 311 -1266
9047 315 -1276
9022 321 -1290
7299 264 -1057
7278 268 -1067
7261 272 -1078
7214 276 -1084
7189 280 -1094
7163 283 -1103
7122 287 -1109
7105 291 -1119
7090 295 -1130
7090 300 -1142
7084 305 -1154
7060 309 -1162
7017 312 -1168
6947 314 -1168
6919 317 -1175
6900 321 -1184
6855 324 -1188
6826 328 -1195
6815 332 -1204
6781 336 -1210
6778 340 -1221
6774 345 -1232
6763 350 -1241
6753 354 -1250
6726 358 -1256
6744 364 -1271
6719 367 -1277
6725 373 -1289
6729 378 -1301
6721 382 -1310
6731 388 -1323
6745 394 -1337
6728 398 -1344
6741 404 -1357
6744 409 -1368
6752 415 -1380
6750 420 -1390
6758 426 -1403
6758 431 -1413
6763 437 -1424
6763 442 -1434
6769 448 -1446
6781 453 -1458
6781 459 -1468
6779 464 -1478
6785 470 -1489
6773 474 -1496
6738 477 -1498
6699 480 -1499
6659 482 -1500
6639 485 -1504
6631 490 -1512
6629 495 -1521
6637 501 -1532
6635 505.99997 -1540
6641 512 -1551
6634 517 -1558
6646 523 -1570
6607 525 -1570
6576 527 -1571
6538 530 -1570
6498 531 -1569
6469 534 -1570
6429 536 -1569
6406 539 -1571
6365 540 -1569
6324 542 -1567
6308 546 -1571
6279 548 -1571
6265 552 -1575
6256 556 -1580
6259 561 -1588
6247 565 -1593
6242 569 -1599
6239 574 -1605
6231 578 -1610
6225 582 -1616
6214 586 -1620
6210 590 -1626
6201 595 -1630
6196 599 -1636
6187 603 -1640
6185 607 -1646
6186 612 -1653
6178 616 -1657
6176 621 -1663
6166 624 -1666
6159 628 -1670
6148 632 -1674
6157 638 -1682
6148 641 -1686
6134 644 -1687
6136 649 -1694
6122 653 -1696
6117 657 -1700
6110 660 -1703
6112 665 -1709
6113 670 -1715
6097 672 -1716
6092 676 -1720
6085 680 -1723
6086 685 -1728
6080 689 -1732
6071 692 -1734
6071 696 -1739
6066 700 -1742
6065 704 -1746
6062 708 -1750
6060 712 -1754
6074 718 -1762
6060 721 -1763
6058 725 -1766
6061 729 -1771
6055 733 -1774
6059 737 -1779
6054 741 -1782
6055 745 -1786
6051 749 -1788
6050 753 -1792
6054 757 -1797
6042 760 -1797
6068 767 -1808
6050 769 -1806
6051 773 -1809
6043 776 -1810
6054 781 -1816
6049 784 -1818
6059 789 -1824
6048 792 -1824
6042 795 -1825
6047 799 -1829
6041 802 -1830
6048 807 -1835
6044 810 -1836
6045 814 -1839
6038 816 -1839
6047 821 -1844
6042 824 -1844
6034 826 -1844
6043 831 -1849
6043 835 -1851
6037 837 -1851
6033 840 -1852
6035 843 -1854
6042 848 -1858
6044 851 -1860
6039 854 -1860
6043 858 -1862
6040 861 -1863
6043 864 -1865
6044 868 -1867
6030 869 -1863
6037 873 -1867
6039 876 -1868
6038 879 -1868
6036 881 -1868
6045 886 -1872
6025 886 -1866
6021 888 -1866
6036 893 -1871
6036 896 -1871
6036 899 -1871
6041 902 -1873
6033 904 -1871
6037 907 -1872
6028 908 -1869
6037 912 -1872
6032 914 -1870
6027 916 -1868
6037 920 -1871
6033 921 -1869
6024 922 -1866
6029 926 -1867
6038 929 -1869
6027 930 -1865
6033 933 -1866
6041 936 -1867
6031 937 -1863
6034 940 -1863
6035 942 -1862
6038 944 -1862
6039 946 -1861
6032 947 -1857
6030 949 -1855
6041 953 -1857
6040 954 -1855
6031 955 -1850
6033 957 -1849
6026 957 -1845
6040 961 -1848
6030 961 -1843
6033 963 -1841
6036 965 -1840
6036 967 -1838
6035 968 -1835
6029 969 -1831
6036 971 -1830
6031 972 -1826
6039 974 -1826
6040 976 -1824
6039 977 -1820
6041 978 -1818
6038 979 -1814
6034 979 -1810
6046 982 -1811
6033 981 -1804
6047 984 -1804
6040 984 -1799
6038 984 -1795
6046 987 -1794
6037 986 -1788
6041 987 -1785
6043 988 -1782
6044 989 -1779
6042 989 -1774
6040 990 -1770
6041 990 -1766
6042 991 -1762
6050 992 -1760
6046 992 -1755
6049 993 -1752
6046 993 -1747
6043 992 -1741
6050 994 -1739
6053 995 -1735
6049 994 -1729
6051 994 -1725
6057 995 -1722
6052 994 -1716
6062 996 -1714
6057 995 -1707
6052 994 -1701
6055 994 -1697
6069 996 -1695
6071 996 -1691
6065 995 -1683
6058 993 -1676
6078 996 -1676
6065 993 -1667
6068 993 -1662
6057 991 -1654
6057 990 -1648
6058 990 -1643
6074 991 -1641
6070 990 -1634
6067 989 -1627
6064 987 -1620
6070 987 -1616
6078 987 -1612
6083 987 -1607
6107 990 -1607
6116 990 -1603
6136 992 -1601
6148 993 -1598
6162 994 -1595
6169 994 -1590
6202 997 -1592
6251 1003.9999 -1598
6305 1011.0001 -1605
6345 1016.0001 -1608
6388 1021 -1611
6453 1029 -1620
6522 1039 -1630
6528 1038 -1624
6549 1039 -1621
6552 1037 -1615
6570 1038 -1611
6581 1038 -1606
6600 1039 -1603
6607 1038 -1597
6626 1038 -1593
6647 1039 -1590
6659 1039 -1585
6674 1038 -1580
6691 1039 -1575
6692 1036 -1567
6725 1039 -1566
6720 1035 -1556
6763 1039 -1558
6772 1038 -1551
6787 1037 -1545
6802 1036 -1540
6827 1037 -1536
6849 1037 -1532
6860 1035 -1526
6877 1035 -1520
6900 1035 -1516
6912 1034 -1509
6923 1032 -1502
6956 1033 -1500
6965 1031 -1492
6987 1031 -1487
7010 1030 -1482
7030 1029 -1477
7060 1030 -1473
7078 1029 -1467
7101 1028 -1462
7125 1028 -1457
7147 1027 -1451
7155 1023 -1442
7181 1023 -1437
7207 1021.9999 -1432
7224 1020 -1425
7238 1018 -1417
7271 1018 -1413
7298 1016.9999 -1407
7307 1013 -1398
7341 1013 -1394
7370 1011.9999 -1388
7378 1008.9999 -1379
7410 1008 -1374
7433 1006.0001 -1367
7445 1002 -1358
7479 1002 -1353
7492 998 -1344
7528 998 -1339
7541 994 -1329
7568 992 -1323
7600 990 -1316
7613 986 -1307
7653 985 -1302
7675 982 -1294
7703 980 -1286
7712 975 -1276
7745 973 -1269
7782 971 -1263
7808 968 -1255
7834 965 -1247
7856 961 -1238
7895 959 -1231
7907 954 -1221
7902 947 -1207
7895 939 -1194
7889 931 -1180
7873 922 -1165
7864 914 -1151
7858 906 -1138
7855 899 -1125
7845 891 -1111
7856 885 -1099
7864 878 -1088
7914 876 -1082
7976 876 -1078
7987 869 -1066
7970 860 -1051
8081.0005 864 -1053
9330 989 -1200
9386 985 -1192
9428 980 -1182
9445 973 -1169
9488 968 -1158
9529 962 -1148
9565 956 -1137
9586 948 -1123
9635 943 -1113
9666 936 -1101
9713 930 -1090
9747 923 -1078
9773 915 -1065
9799 907 -1052
9856 901 -1042
9896 894 -1030
6831 610 -699
6801 599 -685
6804 592 -674
6803 584 -663
6801 576 -652
6802 569 -640
6800 561 -629
6792 552 -617
6794 545 -606
6787 536 -595
6775 527 -582
6767 519 -571
6764 510 -559
6761 501.99997 -548
6777 495 -538
6798 488 -528
6848 483 -521
6852 475 -510
6909 470 -503.00003
6929 463 -493
10504 689 -730
10496 675 -713
10488 662 -695
10491 648 -678
10477 634 -660
10474 620 -643
10479 607 -626
10485 594 -609
10472 579 -592
10454 565 -574
10457 551 -557
10450 537 -540
10442 523 -523
10452 509 -505.99997
10439 494 -489
10437 480 -472
10430 465 -455
10429 451 -438
10422 437 -421
10414 422 -404
10422 408 -388
10423 393 -371
10406 378 -354
10408 364 -338
10401 349 -321
10407 334 -305
10396 319 -289
10387 304 -272
10376 289 -256
10375 274 -239
10377 259 -223
10371 243 -207
10371 228 -190
10365 213 -174
10368 197 -158
10361 182 -142
10368 167 -126
10395 152 -111
10478 137 -96
10700 124 -82
10864 110 -66
11021 95 -51
11065 78 -34
11090 62 -18
11153 45 -1
11246 28 15
11299 11 31
11361 -5 48
11413 -23 65
11487 -41 83
11516 -59 100
11610 -78 118
11641 -96 135
11730 -115 153
11774 -134 171
11805 -153 188
11806 -171 205
11802 -190 222
11793 -209 239
11794 -227 256
11798 -246 273
11783 -265 289
11793 -284 306
11819 -304 323
11833 -323 340
11821 -342 356
11967 -365 376
11939 -384 392
14445 -488 494
14484 -513 515
14559 -540 538
14540 -562 556
14562 -587 577
14563 -611 596
14640 -638 619
14620 -661 637
14593 -684 656
14561 -707 673
14524 -729 690
14561 -755 711
14574 -780 731
14609 -806 751
14655 -833 772
14690 -860 793
14723 -886 813
14773 -914 834
14784 -939 853
14832 -967 875
14867 -994 895
14918 -1023 917
14954 -1050 937
14980 -1077 957
15031 -1106 978
15066 -1134 999
15075 -1161 1018
15123 -1190 1039
15176 -1219 1060
15209 -1248 1081
15247 -1277 1101
15274 -1304 1120
15314 -1334 1141
15376 -1365 1163
15376 -1391 1181
15407 -1420 1201
15456 -1451 1222
15506 -1481 1242
15547 -1512 1263
15594 -1543 1284
15618 -1571 1303
15675 -1604 1324
15711 -1634 1345
15737 -1664 1364
15776 -1694 1383
15788 -1722 1401
15870 -1758 1425
15919 -1790 1446
16070 -1834 1476
16237 -1881 1508
18788 -2208 1764
18779 -2238 1782
18779 -2270 1801
18753 -2298 1817
18765 -2331 1836
18730 -2358 1851
18730 -2390 1869
18714 -2419 1885
18687 -2447 1900
18692 -2479 1918
18684 -2509 1935
18658 -2537 1950
18661 -2568 1967
18662 -2600 1984
18638 -2627 1998
18616 -2655 2013
18580 -2681 2026
18559 -2709 2040
18552 -2739 2055
18517 -2764 2067
18487 -2790 2079
18489 -2821 2095
18476 -2849 2109
18461 -2877 2123
18444 -2904 2136
18457 -2936 2152
18455 -2966 2167
18468 -2998 2183
18460 -3027 2197
18403 -3047 2204
18337 -3066 2210
18343 -3097 2225
18351 -3128 2240
18349 -3156 2253
18314 -3179 2262
18304 -3206 2274
18344 -3243 2292
18328 -3269 2304
18342 -3301 2318
18326 -3327 2329
18394 -3368 2350
18416 -3401 2366
18664 -3475 2410
19142 -3594 2484
19536 -3699 2548
19647 -3750 2575
19676 -3786 2592
19684 -3818 2605
19660 -3843 2614
19649 -3871 2625
19627 -3896 2634
19624 -3926 2646
19584 -3947 2652
19546 -3969 2658
19519 -3992 2665
19520 -4021 2676
19537 -4053 2689
19499 -4074 2695
19534 -4110 2710
19522 -4136 2719
19482 -4156 2723
19481 -4184 2733
19499 -4216 2745
19495 -4243 2754
21699 -4754 3076
21680 -4781 3084
21699 -4815 3097
21725 -4851 3111
21720 -4879 3120
21705 -4906 3128
21693 -4934 3136
21692 -4963 3145
21687 -4992 3153
21689 -5022 3163
21695 -5052 3172
21721 -5088 3185
21748 -5123 3197
21726 -5147 3202
21855 -5206 3229
21718 -5202 3217
22977 -5533 3412
23002 -5568 3423
23084 -5618 3443
23054 -5640 3447
23110 -5684 3462
23165 -5726 3478
23254 -5776 3499
23356 -5831 3521
23394 -5869 3533
23396 -5898 3540
23509 -5955 3564
23518 -5985 3572
23651 -6047 3598
23698 -6087 3612
23664 -6106 3612
23601 -6117 3608
23689 -6167 3627
23673 -6190 3630
23740 -6235 3645
23742 -6263 3651
23793 -6302 3663
23823 -6337 3672
23806 -6359 3674
23898 -6409 3692
23905 -6437 3698
23958 -6476 3709
21770 -5908 3374
24120 -6571 3741
21898 -5988 3400
21850 -5997 3395
21814 -6010 3392
24134 -6673 3756
21821 -6056 3398
21832 -6080 3402
21750 -6078 3391
21788 -6110 3400
21738 -6116 3393
21742 -6138 3395
21716 -6151 3393
21724 -6173 3395
21763 -6204 3402
21782 -6228 3406
21723 -6231 3397
24215 -6967 3787
21726 -6269 3399
21666 -6270 3390
21747 -6312 3402
24170 -7035 3781
24293 -7091 3800
24267 -7103 3796
24336 -7142 3806
24252 -7136 3792
24284 -7164 3796
24207 -7160 3782
24281 -7200 3792
24299 -7223 3794
24212 -7215 3778
24264 -7247 3784
24219 -7251 3775
24174 -7253 3766
24099 -7247 3752
24117 -7269 3751
24036 -7260 3737
24032 -7274 3733
24005 -7281 3726
23951 -7279 3714
23939 -7290 3709
23881 -7286 3697
23835 -7286 3685
23809 -7291 3677
23789 -7298 3670
23765 -7303 3662
23681 -7290 3645
23694 -7306 3642
23663 -7308 3633
23653 -7316 3626
23618 -7316 3616
23583 -7316 3606
23561 -7320 3597
23491 -7308 3581
23460 -7308 3571
23463 -7318 3566
23419 -7314 3553
23366 -7306 3539
23338 -7306 3528
23254 -7287 3510
23243 -7292 3502
23176 -7278 3485
23180 -7287 3479
23176 -7293 3471
23106 -7277 3453
23124 -7289 3449
23022 -7263 3427
22999 -7261 3416
22951 -7251 3401
22922 -7247 3389
22830 -7223 3368
22750 -7202 3348
22717 -7195 3335
22617 -7168 3312
22600 -7165 3302
22496 -7136 3278
22396 -7107 3255
22246 -7061 3224
22265 -7070 3219
22177 -7043 3197
22145 -7035 3184
22081 -7016 3166
20821 -6616 2977
21170 -6728 3018
20970 -6664 2980
20909 -6645 2963
20860 -6629 2947
20820 -6616 2932
20809 -6612 2921
20776 -6600 2907
20756 -6593 2895
20761 -6593 2886
20723 -6579 2871
20734 -6580 2863
20735 -6577 2853
20726 -6572 2842
20713 -6565 2830
20721 -6564 2821
20723 -6561 2811
20738 -6562 2803
18549 -5866 2498
18561 -5865 2490
18533 -5852 2476
18502 -5838 2462
18542 -5846 2458
18582 -5853 2453
18549 -5838 2440
18508 -5820 2424
18502 -5812 2413
18515 -5810 2404
18529 -5808 2396
18537 -5804 2388
18534 -5797 2376
18545 -5793 2367
18545 -5786 2357
18557 -5782 2347
18559 -5775 2337
18569 -5770 2327
18569 -5762 2316
18574 -5755 2305
18561 -5742 2293
18566 -5735 2283
18554 -5722 2270
18509 -5699 2253
18452 -5671 2236
18407 -5648 2219
18333 -5615 2198
18256 -5581 2178
18151 -5539 2154
18070 -5503 2133
17831 -5420 2093
17623 -5346 2057
17473 -5289 2029
17335 -5236 2002.0001
17298 -5214 1986
17260 -5191 1970
17217 -5166 1955
17247 -5163 1947
17248 -5151 1935
17226 -5133 1921
17255 -5129 1913
17259 -5117 1902
17270 -5107 1892
17283 -5098 1881
17274 -5082 1868
17282 -5070 1857
17278 -5055 1845
17294 -5046 1835
17288 -5029 1823
17266 -5009 1808
17280 -4998 1797
17301 -4988 1788
17292 -4971 1774
17294 -4956 1763
17318 -4947 1753
17324 -4933 1741
17317 -4915 1729
17337 -4904 1718
17339 -4888 1706
17351 -4875 1695
17346 -4856 1682
17342 -4838 1669
17351 -4823 1658
17344 -4803 1644
17348 -4786 1632
17393 -4781 1624
17382 -4759 1610
17381 -4741 1597
17392 -4725 1586
17408 -4710 1574
17412 -4692 1562
17414 -4673 1549
17427 -4657 1538
17415 -4634 1524
17435 -4620 1513
17459 -4606 1503
17465 -4587 1490
17474 -4569 1478
17485 -4551 1466
17440 -4518 1449
17444 -4498 1437
17432 -4474 1423
17453 -4458 1412
17469 -4440 1400
17489 -4423 1389
17489 -4401 1376
17486 -4378 1363
17492 -4356 1350
17517 -4339 1339
17491 -4310 1324
17416 -4268 1306
17320 -4222 1286
17210 -4171 1265
17172 -4139 1249
17122 -4104 1233
17110 -4077.0002 1220
17030 -4034 1201
16978 -3998 1185
16875 -3951 1166
16825 -3915 1150
16773 -3879 1134
16625 -3821 1111
16488 -3765 1090
16469 -3737 1077
16420 -3702 1062
16385 -3670 1048
16302 -3626 1030
16282 -3597 1016.9999
16209.999 -3557 1001.0001
16112 -3511 983
16018.999 -3466 966
15975 -3432 952
15930 -3398 938
15832 -3353 921
15786 -3319 907
15780 -3293 896
15767 -3266 884
15687 -3224 868
15668 -3195 856
12811 -2592 691
12779 -2565 680
12733 -2535 669
12722 -2512 660
12661 -2479 648
12581 -2443 635
12506 -2407 622
12491 -2384 613
12474 -2359 604
12449 -2334 594
12446 -2312 585
12438 -2289 576
12448 -2270 569
12438 -2247 560
12411 -2220 550
12389 -2195 541
12351 -2167 531
12294 -2136 521
12257 -2107 512
12207 -2077 501
12217 -2057 494
12221 -2036 486
12227 -2015.0001 479
12198 -1988 470
12171 -1962 461
12134 -1934 452
12117 -1909 444
12083 -1882 435
12067 -1857 427
12032 -1829 418
12025 -1806 411
11979 -1777 402
11968 -1753 394
11956 -1729 387
11944 -1705 379
11924 -1679 372
11899 -1653 364
11885 -1628 357
11856 -1602 349
11870 -1582 343
11864 -1558 336
11858 -1534 329
11852 -1510 322
11861 -1489 316
11867 -1466 310
11858 -1442 303
11857 -1419 297
11857 -1396 290
11852 -1372 284
11864 -1350 278
11852 -1326 272
11864 -1303 266
11860 -1280 260
11853 -1256 254.00002
11855 -1232 248
11868 -1210 243
11859 -1185 237
11858 -1162 231
11862 -1138 226
11851 -1113 220
11850 -1089 215
11841 -1065 209
11833 -1040 204
11825 -1015 198
11797 -989 193
11785 -964 188
11758 -937 182
11728 -911 177
11719 -886 172
11695 -861 167
11675 -835 162
11656 -809 157
11652 -785 152
11652 -761 148
11636 -735 143
11635 -711 139
11635 -687 135
11606 -661 130
11557 -634 126
11545 -609 122
11574 -587 118
11556 -562 114
11538 -536 110
11528 -512 106
11515 -487 103
11497 -462 99
11476 -437 95
11464 -412 92
11461 -388 89
11446 -363 85
11440 -338 82
11414 -313 79
11422 -289 76
11412 -265 73
11394 -240 70
11391 -216 68
11391 -191 65
11390 -167 62
11372 -143 60
11369 -118 58
11358 -94 55
11356 -70 53
11347 -46 51
11334 -22 49
11339 1 47
11336 25 45
11324 49 43
11322 74 41
11326 98 39
11310 122 38
11315 146 36
11308 170 35
11296 194 34
11312 219 32
11291 243 31
11284 267 30
11282 291 29
11267 315 28
11285 340 27
11290 364 26
11279 388 25
11265 411 25
11279 436 24
11278 460 24
11283 484 23
11279 508.00003 23
11280 532 23
11280 556 23
11290 581 22
11288 605 22
11295 629 23
11287 653 23
11296 677 23
11291 701 23
11240 721 23
11280 747 24
11302 773 24
11307 797 25
11295 820 26
11298 844 27
11306 868 27
11314 893 28
11305 916 29
11318 941 30
11323 965 31
11321 988 33
11332 1013 34
11344 1037 35
11336 1060 37
11346 1085 38
11361 1110 40
11360 1133 42
11362 1157 43
11378 1182 45
11386 1206 47
11395 1230 49
11391 1253 51
11402 1278 53
11423 1304 55
11422 1327 58
11445 1353 60
11444 1376 62
11440 1399 65
11461 1424 67
11471 1449 70
11489 1474 73
11478 1496 76
11491 1520 78
11512 1546 81
11516 1569 84
11529 1594 88
11549 1620 91
11544 1642 94
11561 1667 97
11565 1690 100
11585 1716 104
11588 1739 107
11595 1762 111
11610 1788 115
11628 1813 119
11661 1840 123
11667 1864 126
11683 1889 130
11709 1915 134
11712 1938 138
11724 1963 142
11738 1987 147
11760 2012.0001 151
11754 2033 155
11781 2060 160
11794 2084 164
11809 2110 169
11833 2135 174
11842 2159 178
11867 2185 183
11876 2208 188
11910 2237 193
11917 2260 198
11926 2283 203
11942 2308 208
11955 2332 214
11986 2359 219
11991 2381 224
12014 2407 230
12035 2432 235
12049 2456 241
12071 2482 246
12091 2507 252
12113 2532 258
12153 2561 264
12173 2587 270
12186 2610 276
12208 2635 282
12233 2661 289
12246 2684 294
12272 2710 301
12282 2733 307
12318 2761 314
12335 2785 320
