# .PCD v0.7 - Point Cloud Data file format
VERSION 0.7
FIELDS x y z
SIZE 4 4 4
TYPE F F F
COUNT 1 1 1
WIDTH 3014
HEIGHT 1
VIEWPOINT 0 0 0 1 0 0 0
POINTS 3014
DATA ascii
11640 1502 118
11646 1479 118
11643 1455 119
11665 1435 120
11638 1408 121
11636 1384 121
11650 1362 122
11649 1338 122
11646 1314 123
11650 1291 123
11661 1268 123
11649 1243 123
11652 1220 124
11653 1196 124
11642 1171 123
11645 1147 123
11641 1123 123
11648 1100 123
11647 1075 123
11627 1049 122
11634 1026 121
11619 1000 121
11614 976 120
11620 952 119
11621 928 118
11602 902 117
11609 878 116
11596 853 115
11600 829 114
11602 805 113
11591 780 112
11586 755 110
11581 730 109
11587 706 107
11568 681 105
11567 656 104
11568 632 102
11563 607 100
11553 582 98
11512 556 96
11512 531 94
11502 507.00003 92
11513 483 89
11455 456 87
11463 432 84
11472 408 82
11463 383 79
11464 360 77
11444 334 74
11440 310 71
11429 286 68
11394 261 65
11400 237 62
11381 213 59
11380 188 56
11367 164 53
11357 140 49
11338 115 46
11321 91 42
11310 67 39
11292 43 35
11277 19 31
11277 -4 27
11249 -28 24
11238 -52 20
11220 -76 16
11220 -99 12
11205 -123 8
11198 -147 3
11175 -169 0
11161 -193 -4
11136 -216 -8
11114 -239 -13
11118 -262 -17
11087 -284 -22
11013 -306 -26
11013 -328 -31
10977 -350 -36
10918 -371 -40
10864 -392 -45
10844 -414 -50
10794 -434 -54
10722 -454 -59
10650 -473 -64
10571 -491 -68
10485 -509 -73
10443 -529 -77
10430 -549 -83
10417 -570 -88
10420 -592 -93
10421 -613 -98
10419 -634 -104
10407 -655 -109
10410 -676 -115
10415 -698 -120
10400 -718 -126
10391 -739 -131
10391 -760 -137
10357 -778 -143
10330 -797 -148
10318 -817 -154
10291 -835 -159
10273 -854 -165
10263 -874 -171
10241 -893 -177
10223 -911 -183
10217 -931 -189
10199 -950 -195
10193 -969 -201
10185 -988 -207
10180 -1008 -213
10189 -1029 -220
10183 -1048 -226
10197 -1069 -233
10198 -1089 -240
10207 -1110 -247
10201 -1129 -252.99998
10205 -1149 -260
10198 -1167 -267
10214 -1189 -274
10213 -1208 -281
10225 -1229 -288
10236 -1250 -295
10217 -1266 -302
10220 -1286 -309
10236 -1307 -317
10237 -1327 -324
10242 -1346 -331
10248 -1366 -339
10249 -1385 -346
10255 -1405 -354
10252 -1423 -361
10257 -1443 -369
10262 -1463 -376
10265 -1482 -384
10269 -1501 -392
10271 -1520 -400
10284 -1540 -408
10283 -1558 -416
10289 -1577 -424
10297 -1597 -432
10299 -1616 -440
10300 -1634 -448
10300 -1652 -456
10305 -1671 -464
10306 -1689 -472
10307 -1707 -480
10324 -1727 -489
10345 -1748 -498
10367 -1770 -507.00003
10386 -1791 -516
10394 -1810 -525
10419 -1832 -535
10452 -1855 -545
10457 -1873 -553
10480 -1894 -563
10496 -1915 -572
10512 -1935 -582
10538 -1957 -592
10560 -1978 -601
10582 -1999 -611
10601 -2019 -621
10619 -2040 -631
10627 -2058 -640
10656 -2081 -651
7033 -1384 -435
7018 -1392 -440
7007 -1401 -445
6992 -1409 -450
6985 -1418 -455
6933 -1418 -458
6920 -1426 -463
6926 -1437 -469
6898 -1442 -473
6898 -1452 -478
6887 -1460 -483
6883 -1469 -489
6874 -1477 -494
6856 -1483 -499
6862 -1494 -505
6865 -1505 -510.99997
6862 -1514 -516
6857 -1522 -522
6864 -1533 -528
6872 -1544 -535
6866 -1552 -540
6851 -1558 -544
6876 -1573 -552
6861 -1579 -557
10325 -2390 -847
10303 -2399 -854
10269 -2404 -860
10242 -2411 -866
10224 -2420 -873
10206 -2429 -880
10184 -2437 -887
10160 -2444 -893
10148 -2454 -901
10135 -2463 -908
10120 -2471 -915
10075 -2472 -920
10067 -2483 -927
10046 -2489 -934
10015 -2493 -939
10002 -2502 -946
9965 -2504 -951
9957 -2514 -959
9944 -2522 -965
9907 -2524 -970
9898 -2532 -977
9876 -2537 -983
9851 -2541 -989
9837 -2548 -996
9811 -2552 -1001.0001
9802 -2560 -1008
9777 -2564 -1014.0001
9757 -2569 -1019.0001
9731 -2572 -1025
9717 -2578 -1031
9705 -2585 -1038
9681 -2588 -1043
9659 -2591 -1048
9649 -2598 -1055
9615 -2598 -1059
9590 -2600 -1064
9591 -2609 -1071
9571 -2612 -1077
9551 -2615 -1082
9527 -2617 -1087
9507 -2620 -1092
9509 -2629 -1099
9476 -2628 -1103
9449 -2628 -1107
9426 -2630 -1112
9388 -2627 -1114
9371 -2629 -1119
9387 -2641 -1128
9353 -2639 -1131
9360 -2648 -1139
9360 -2655 -1146
9349 -2659 -1152
9327 -2660 -1156
9303 -2659 -1160
9274 -2658 -1163
9260 -2660 -1169
9232 -2658 -1172
9214 -2659 -1176
9205 -2663 -1182
9187 -2663 -1186
9177 -2666 -1191
9161 -2667 -1195
9160 -2673 -1202
9121 -2666 -1203
9115 -2670 -1209
9115 -2675 -1215
9101 -2676 -1219
9075 -2673 -1222
9066 -2675 -1226
9052 -2676 -1231
9034 -2675 -1235
9022 -2676 -1238
9002 -2674 -1242
8990 -2675 -1246
8988 -2678 -1252
8961 -2674 -1254
8956 -2676 -1259
8940 -2675 -1262
8944 -2680 -1268
8923 -2677 -1271
8911 -2677 -1274
8883 -2672 -1276
8886 -2676 -1282
8866 -2673 -1284
8850 -2671 -1287
8846 -2672 -1291
8835 -2671 -1295
8829 -2672 -1299
8803 -2666 -1301
8797 -2667 -1305
8795 -2668 -1309
8784 -2667 -1313
8763 -2662 -1314
8747 -2659 -1316
8739 -2659 -1320
8730 -2658 -1323
8711 -2653 -1325
8709 -2654 -1329
8699 -2652 -1332
8689 -2650 -1335
8678 -2648 -1338
8675 -2647 -1341
8664 -2645 -1344
8655 -2643 -1347
8649 -2641 -1350
8638 -2638 -1352
8635 -2638 -1356
8618 -2633 -1357
8619 -2633 -1361
8601 -2628 -1362
8592 -2625 -1364
8591 -2624 -1368
8585 -2622 -1370
8565 -2615 -1371
8550 -2610 -1372
8547 -2608 -1375
8555 -2610 -1379
8541 -2605 -1380
8532 -2601 -1383
8521 -2596 -1384
8523 -2596 -1387
8506 -2589 -1388
8504 -2587 -1390
8504 -2585 -1393
8488 -2579 -1394
8493 -2579 -1397
8479 -2572 -1397
8463 -2566 -1398
8455 -2561 -1399
8444 -2555 -1400
8437 -2551 -1401
8425 -2545 -1401
8420 -2541 -1403
8425 -2540 -1406
8425 -2537 -1408
8434 -2536 -1412
8439 -2535 -1415
8418 -2526 -1413
8420 -2523 -1416
8415 -2518 -1417
8423 -2517 -1420
8400 -2507 -1418
8402 -2504 -1420
8404 -2501 -1422
8404 -2497 -1424
8393 -2490 -1423
8389 -2485 -1424
8392 -2481 -1426
8391 -2477 -1427
8393 -2473 -1429
8391 -2468 -1430
8384 -2462 -1430
8367 -2452 -1428
8387 -2453 -1432
8381 -2447 -1432
8371 -2439 -1432
8375 -2435 -1433
8363 -2427 -1432
8370 -2423 -1434
8372 -2418 -1435
8372 -2413 -1435
8363 -2405 -1434
8377 -2404 -1437
8375 -2397 -1437
8353 -2385 -1433
8364 -2382 -1436
8365 -2377 -1436
8355 -2368 -1434
8359 -2363 -1435
8361 -2357 -1435
8342 -2345 -1432
8330 -2336 -1430
8350 -2335 -1433
8333 -2324 -1430
8299 -2307 -1423
8337 -2311 -1429
8346 -2307 -1430
8373 -2307 -1434
8369 -2299 -1433
8383 -2296 -1435
8373 -2286 -1432
8374 -2278 -1432
8378 -2272 -1431
8391 -2268 -1433
8398 -2262 -1432
8385 -2251 -1429
8387 -2244 -1428
8398 -2239 -1429
8396 -2230 -1427
8404 -2225 -1427
8409 -2218 -1426
8410 -2210 -1425
8417 -2203 -1425
8416 -2195 -1423
8422 -2187 -1422
8430 -2181 -1421
8430 -2172 -1419
8430 -2164 -1418
8434 -2156 -1416
8444 -2149 -1415
8452 -2142 -1415
8467 -2137 -1415
8460 -2126 -1411
8464 -2118 -1409
8471 -2110 -1408
8474 -2101 -1406
8465 -2090 -1402
8472 -2081 -1400
8470 -2071 -1397
8489 -2066 -1397
8491 -2057 -1395
8505 -2050 -1394
8517 -2043 -1393
8530 -2036 -1392
8533 -2027 -1389
8552 -2020.9999 -1389
8555 -2010.9999 -1386
8557 -2000.9999 -1382
8556 -1991 -1379
8576 -1985 -1378
8596 -1978 -1378
8599 -1968 -1374
8606 -1959 -1372
8613 -1950 -1369
8625 -1942 -1366
8631 -1932 -1363
8638 -1922 -1360
8642 -1912 -1357
8662 -1905 -1355
8662 -1894 -1351
8684 -1887 -1350
8698 -1879 -1347
8720 -1872 -1346
8738 -1864 -1344
8753 -1855 -1341
8746 -1842 -1335
8742 -1829 -1330
8733 -1815 -1323
8753 -1807 -1321
8776 -1800 -1319
8790 -1791 -1316
8800 -1781 -1312
8817 -1772 -1309
8839 -1764 -1307
8910 -1765 -1312
8858 -1742 -1298
8880 -1734 -1295
8878 -1721 -1289
8899 -1712 -1286
8907 -1701 -1281
8925 -1692 -1278
8938 -1682 -1273
8944 -1670 -1268
8978 -1663 -1266
8985 -1651 -1261
9008 -1642 -1257
9021 -1631 -1252
9034 -1620 -1247
9036 -1607 -1241
9065 -1599 -1237
9080 -1588 -1232
9104 -1578 -1229
9117 -1567 -1223
9120 -1554 -1216
9129 -1541 -1210
9155 -1532 -1206
9174 -1521 -1201
9193 -1510 -1195
9211 -1499 -1190
9244 -1490 -1186
9252 -1478 -1179
9273 -1467 -1174
9297 -1456 -1168
9315 -1445 -1162
9335 -1433 -1157
9373 -1425 -1153
9387 -1412 -1146
9412 -1401 -1140
9436 -1390 -1134
9445 -1377 -1126
9469 -1366 -1120
9498 -1355 -1115
9529 -1344 -1109
9537 -1330 -1100
9551 -1317 -1093
9586 -1307 -1087
9599 -1293 -1079
9627 -1282 -1072
9641 -1269 -1064
9656 -1255 -1056
9695 -1245 -1050
9731 -1234 -1044
9757 -1222 -1036
9796 -1211 -1030
9807 -1197 -1021
9845 -1186 -1014.0001
9869 -1173 -1006.0001
9893 -1160 -998
9905 -1146 -988
9959 -1136 -982
9986 -1124 -974
10009 -1110 -965
10036 -1097 -956
10054 -1083 -946
10108 -1073 -940
10135 -1059 -931
10159 -1046 -921
10192 -1033 -912
10229 -1020 -903
10231 -1003.9999 -891
6841 -660 -588
6812 -646 -577
6829 -637 -570
6818 -625 -561
6841 -616 -554
6837 -605 -546
6817 -592 -535
6809 -581 -526
6829 -571 -519
6853 -562 -512
6869 -553 -505
6883 -543 -497
6905 -533 -490
6931 -524 -483
6957 -516 -476
6989 -507.00003 -469
10470 -743 -689
10482 -727 -675
10478 -710 -661
10497 -695 -648
10497 -678 -634
10508 -662 -621
10503 -645 -606
10511 -629 -592
10511 -613 -578
10525 -597 -564
10527 -581 -549
10537 -565 -535
10535 -548 -521
10514 -531 -505
10514 -514 -490
10500 -498 -474
10494 -481 -459
10499 -465 -444
10481 -448 -428
10490 -432 -413
10472 -415 -398
10462 -398 -382
10452 -382 -366
10457 -366 -351
10454 -350 -335
10445 -334 -320
10434 -318 -304
10434 -302 -288
10441 -286 -273
10426 -270 -257
10420 -254.00002 -241
10408 -239 -225
10405 -223 -209
10403 -207 -193
10403 -192 -177
10395 -176 -161
10382 -160 -144
10379 -145 -128
10388 -130 -112
10430 -115 -97
10617 -102 -82
10812 -88 -66
10995 -73 -50
11058 -58 -33
11109 -42 -15
11159 -27 1
11265 -11 19
11310 4 37
11387 20 55
11449 37 74
11510 53 93
11576 70 113
11640 87 132
11754 104 153
11785 121 172
11787 137 192
11783 153 211
11767 169 230
11767 185 249
11760 201 269
11767 217 288
11777 233 308
11814 250 329
11824 265 348
11915 283 371
14631 367 479
14714 389 507.00003
14792 410 535
14890 433 564
14988 455 592
15098 477 622
15229 501 653
15282 523 682
15339 544 710
15470 568 742
15605 593 775
15729 618 809
15828 641 841
15947 666 874
16039 689 906
16194 716 943
16239 738 974
16389 765 1011.0001
16525 791 1048
16628 816 1083
16764 843 1121
16893 869 1159
16958 893 1193
17104 920 1232
17377 955 1282
17489 981 1320
17486 1001.0001 1350
17489 1021.9999 1381
17478 1041 1410
17477 1060 1440
17456 1079 1469
17450 1098 1499
17437 1116 1528
17406 1134 1556
17362 1150 1582
17343 1167 1610
17348 1187 1641
17360 1206 1672
17339 1223 1701
17345 1242 1731
17347 1260 1762
17333 1277 1791
17337 1295 1822
17328 1313 1851
17314 1329 1880
17315 1347 1910
17310 1364 1940
17276 1378 1966
17319 1399 2000.9999
17383 1421 2039
17455 1444 2078
22449 1879 2712
22504 1905 2757
22507 1928 2797
22477 1946 2832
22476 1966 2871
22478 1987 2910
22482 2007.9999 2949
22476 2029 2987
22471 2048 3025
22467 2068 3064
22467 2088 3103
22452 2106 3139
22449 2125 3177
22457 2146 3217
22460 2165 3255
22559 2194 3309
22598 2217 3354
24139 2388 3623
24393 2434 3703
24409 2454 3746
24396 2473 3785
24394 2492 3827
24393 2512 3868
24382 2530 3908
28110 2938 4553
28108 2960 4599
28104 2981 4646
28090 3000 4691
28087 3021 4737
28083 3040 4783
28077 3060 4827
28064 3079 4872
28070 3099 4919
28079 3120 4967
28139 3146 5024
28408 3196 5119
28471 3223 5178
28995 3302 5321
30664 3512 5677
28523 3285 5327
28411 3290 5351
28336 3300 5383
28299 3314 5422
28276 3329 5463
28226 3340 5499
28211 3355 5540
28194 3370 5582
28209 3388 5628
28198 3403 5671
28180 3417 5711
28194 3435 5759
28197 3452 5804
28214 3469 5851
28214 3484 5895
28231 3502 5941
28221 3515 5983
28244 3533 6031
45653 5733 9818
45617 5752 9879
45573 5768 9939
45542 5787 10000
45628 5819 10089
45808 5864 10196
45912 5899 10286
46303 5970 10442
46376 6000 10527
46450 6030 10611
46481 6054 10686
46515 6077 10760
46738 6125 10879
46371 6096 10859
46389 6117 10929
46129 6101 10932
46039 6106 10976
45965 6114 11023
45928 6125 11078
47922 6409 11625
47900 6423 11685
28129 3781 6900
28092 3786 6929
28116 3798 6973
47819 6476 11925
47805 6489 11986
47761 6498 12038
47770 6514 12102
47747 6524 12158
47730 6535 12216
47699 6544 12270
47674 6554 12324
47646 6562 12377
47654 6575 12439
47621 6582 12490
47624 6594 12549
47589 6598 12599
47591 6610 12658
47572 6618 12710
47540 6623 12758
47528 6630 12812
47519 6637 12866
47507 6644 12918
47472 6647 12964
47463 6655 13017
47465 6662 13070
47433 6665 13115
47423 6671 13165
47401 6674 13211
47393 6679 13261
47371 6682 13307
47370 6688 13357
47348 6690 13403
47331 6693 13447
47318 6696 13493
47297 6697 13536
47290 6698 13584
47297 6703 13634
47251 6700 13667
47252 6702 13715
47245 6704 13759
47229 6705 13800
47225 6706 13845
47223 6707 13889
47195 6704 13924
47186 6704 13965
47164 6701 14001
47161 6700 14043
47138 6697 14077
47143 6697 14120
47121 6692 14153
47088 6688 14184
47085 6685 14223
47097 6685 14265
47078 6680 14298
47068 6676 14333
47068 6672 14370
47048 6667 14400
47041 6663 14434
47029 6657 14467
47035 6653 14504
47005 6644 14529
47003 6640 14561
46999 6634 14593
46990 6627 14623
46990 6621 14655
46966 6612 14679
46954 6604 14706
46951 6597 14735
46939 6589 14761
46927 6579 14786
46924 6571 14813
46899 6560 14833
46924 6556 14868
46905 6545 14889
46912 6537 14917
46906 6527 14940
46869 6512 14954
46883 6505 14982
46889 6496 15007
46877 6484 15026
46870 6472 15046
46858 6461 15064
46852 6447 15083
46854 6437 15104
46837 6423 15118
46864 6415 15146
46849 6400 15159
46832 6386 15171
46837 6374 15190
46847 6362 15210
46827 6346 15220
46824 6332 15234
46810 6316 15244
46813 6301 15259
46830 6290 15278
46813 6273 15285
46790 6255 15289
46805 6241 15306
46802 6226 15315
46815 6212 15330
46794 6193 15332
46796 6177 15342
46809 6162 15355
46792 6142 15357
46774 6123 15358
46796 6109 15371
46794 6091 15376
46810 6077 15386
46771 6053 15377
46789 6037 15387
46791 6018 15391
46794 6000 15395
46788 5981 15394
46786 5961 15395
46804 5944 15401
46820 5926 15406
46794 5904 15397
46809 5885 15400
46802 5865 15396
46809 5845 15395
46812 5824 15393
46807 5802 15387
46808 5782 15382
46820 5761 15381
46812 5738 15372
46812 5716 15366
46831 5696 15365
46831 5673 15357
46839 5651 15351
46845 5630 15344
46833 5605 15330
46827 5581 15318
46853 5560 15315
46857 5537 15305
46854 5514 15291
46851 5489 15277
46867 5466 15269
46892 5446 15262
46876 5419 15242
46904 5397 15235
46881 5369 15212
46903 5346 15202
46906 5321 15186
46909 5296 15167
46911 5270 15149
46937 5248 15138
46932 5221 15116
46940 5196 15098
46952 5170 15080
46967 5145 15063
46960 5117 15038
46958 5091 15014
46978 5064 14997
46992 5039 14975
46974 5009 14944
47016 4987 14932
47021 4958 14907
47032 4931 14883
47040 4904 14858
47037 4875 14828
47059 4849 14806
47066 4821 14778
47065 4793 14748
47086 4766 14724
47093 4739 14694
47100 4710 14664
47123 4682 14638
47128 4653 14607
47134 4624 14575
47144 4595 14543
47166 4568 14515
47184 4540 14484
47192 4510 14450
47184 4480 14410
47221 4453 14384
47214 4422 14344
47230 4392 14309
47234 4362 14271
47239 4333 14232
47267 4304 14200
47290 4275 14165
47299 4244 14126
47308 4215 14084
47332 4186 14050
47325 4153 14004
47327 4123 13960
47377 4096 13930
47392 4065 13888
47407 4034 13846
47414 4002.9998 13801
47429 3972 13758
47431 3941 13709
47480 3913 13675
47476 3881 13624
47496 3851 13580
47500 3818 13531
47521 3788 13486
47516 3755 13432
47554 3725 13391
47556 3692 13339
47585 3663 13292
47621 3633 13248
47613 3599 13191
47650 3569 13146
47648 3538 13090
47686 3507 13045
47707 3475 12994
47709 3445 12936
47733 3413 12885
47747 3381 12830
47784 3351 12781
47773 3317 12718
27947 1921 7405
27959 1902 7372
27963 1883 7337
27992 1866 7309
27976 1846 7268
27997 1828 7236
27984 1808 7195
27975 1789 7156
47977 3035 12207
48010 3004 12150
48009 2971 12084
48018 2939 12020
48063 2909 11964
48076 2877 11899
48083 2844 11832
48121 2814 11773
48122 2781 11705
48157 2752 11644
48150 2719 11572
48201 2689 11514
48216 2657 11446
48232 2626 11381
48244 2594 11311
48285 2564 11248
48298 2533 11179
48325 2502 11112
48317 2470 11035
28420 1434 6447
28414 1415 6402
28438 1398 6363
28406 1377 6311
45951 2198 10137
45972 2170 10067
46011 2141 10002
46005 2111 9926
28529 1291 6110
28541 1273 6067
28559 1256 6024
28560 1238 5978
0 0 0
0 0 0
28566 1184 5835
28567 1166 5788
28594 1149 5745
36663 1451 7304
36610 1426 7231
36609 1403 7168
23464 885 4553
23419 869 4505
23330 852 4447
23349 838 4410
23358 825 4371
23389 812 4335
23415 799 4299
23401 785 4255
28823 950 5189
28828 933 5138
28828 917 5085
28839 901 5035
28852 885 4986
28881 870 4938
28876 853 4884
28920 839 4839
28934 823 4787
28900 806 4728
28879 790 4671
27045 725 4325
26984 709 4264
26925 693 4204
26889 678 4148
26828 662 4087.9998
26731 647 4022.9998
25960 615 3857
25656 594 3763
25559 579 3699
20014 444 2858
19945 432 2810
19930 422 2769
19957 413 2734
19959 404 2696
19937 394 2654
19842 382 2602
19583 368 2530
18461 339 2348
18170 325 2276
18141 317 2236
18126 308 2198
18130 301 2163
18122 293 2126
18131 285 2091
18123 277 2053
18119 270 2016
18096 262 1977
18077 255 1939
18092 248 1904
18090 240 1867
18074 233 1829
18076 226 1792
18065 220 1754
18067 213 1718
18056 206 1680
18054 200 1643
18012 193 1602
18040 187 1567
18034 181 1530
17883 174 1480
17691 166 1427
17504 159 1376
17362 152 1329
17161 145 1278
17076 139 1236
16820 132 1182
16661 126 1136
16577 121 1096
16408 115 1050
16263 110 1007
16233.999 105 971
15529 97 896
15090 90 839
14890 85 796
14790 81 760
14763 78 727
14775 75 697
14780 71 666
14773 68 634
14820 66 605
14802 63 573
14731 59 538
14640 56 504
11892 44 384
11855 42 358
11797 39 331
11789 38 306
11774 36 280
11776 34 255
11787 33 230
11800 31 205
11766 30 179
11665 28 152
11593 27 127.00001
11513 25 101
11408 24 75
11335 23 51
11248 22 26
11135 21 2
11072 20 -21
10964 19 -44
10745 18 -66
10458 17 -87
10366 16 -108
10373 16 -130
10379 16 -153
10385 16 -175
10389 16 -197
10390 16 -219
10399 16 -242
10413 16 -265
10418 16 -287
10415 16 -309
10423 17 -331
10435 17 -354
10438 18 -376
10440 18 -399
10449 19 -421
10470 19 -444
10472 20 -466
10480 21 -489
10482 22 -510.99997
10485 23 -534
10491 24 -556
10495 25 -579
10492 26 -601
10508 28 -624
10521 29 -647
10528 30 -669
10545 32 -692
6959 22 -471
6935 23 -484
6883 24 -495
6852 25 -507.00003
6799 26 -517
6791 27 -531
6784 28 -545
6789 29 -559
6798 31 -574
6792 32 -588
6804 34 -603
10193 53 -925
10141 55 -941
10089 57 -957
10025 59 -971
9995 61 -989
9950 63 -1005
9889 66 -1019.0001
9839 68 -1034
9785 70 -1048
9745 73 -1063
9689 75 -1077
9648 77 -1092
9590 79 -1104
9559 82 -1120
9515 85 -1134
9458 87 -1146
9423 90 -1160
9405 92 -1177
9342 95 -1188
9280 97 -1198
9204 100 -1206
9207 103 -1225
9174 106 -1238
9138 108 -1251
9086 111 -1262
9047 114 -1274
8992 116 -1283
8955 119 -1295
8911 122 -1306
8885 125 -1319
7776 112 -1170
7272 108 -1108
7557 115 -1166
7174 112 -1120
7135 115 -1128
7100 117 -1136
7111 120 -1150
7112 123 -1164
7077 125 -1171
7030 128 -1177
6930 129 -1173
6891 131 -1179
6859 134 -1186
6828 136 -1193
6805 139 -1201
6790 142 -1211
6786 145 -1222
6776 148 -1233
6761 150 -1242
6751 153 -1252
6727 156 -1259
6734 159 -1273
6740 163 -1285
6740 166 -1297
6731 169 -1307
6746 173 -1322
6742 176 -1333
6744 180 -1345
6751 183 -1357
6772 187 -1373
6768 191 -1384
6768 194 -1395
6775 198 -1408
6770 202 -1418
6773 205 -1430
6780 209 -1443
6786 213 -1455
6782 216 -1465
6784 220 -1476
6795 224 -1490
6791 228 -1500
6809 232 -1515
6813 236 -1526
6812 240 -1537
6809 243 -1546
6814 247 -1558
6817 250.99998 -1569
6825 256 -1581
6824 259 -1592
6823 263 -1602
6830 267 -1614
6825 271 -1622
6835 275 -1635
6838 279 -1646
6847 284 -1658
6834 287 -1664
6851 292 -1679
6847 296 -1687
6844 300 -1696
6854 304 -1708
6858 308 -1719
6870 313 -1731
6865 317 -1740
6866 321 -1749
6863 325 -1758
6864 329 -1767
6867 333 -1777
6839 336 -1779
6822 339 -1783
6776 341 -1780
6734 343 -1778
6718 346 -1783
6718 350 -1791
6724 354 -1801
6724 359 -1809
6738 363 -1822
6734 367 -1829
6739 372 -1838
6741 376 -1847
6732 379 -1852
6708 382 -1853
6667 384 -1850
6644 387 -1851
6595 388 -1845
6591 391 -1852
6551 393 -1848
6515 395 -1845
6501 398 -1848
6466 400 -1845
6441 402 -1845
6414 404 -1843
6393 407 -1844
6361 409 -1841
6342 411 -1842
6326 414 -1844
6313 417 -1846
6305 420 -1850
6299 424 -1855
6289 427 -1857
6288 430 -1863
6275 433 -1865
6274 437 -1870
6275 441 -1876
6273 444 -1881
6263 447 -1884
6252 450 -1886
6246 454 -1889
6258 458 -1898
6250 461 -1901
6250 465 -1906
6230 467 -1905
6227 470 -1909
6229 474 -1914
6224 477 -1918
6212 480 -1919
6217 484 -1925
6207 487 -1926
6202 490 -1929
6199 494 -1932
6191 496 -1934
6194 500 -1939
6201 504 -1945
6189 507.00003 -1945
6184 510 -1947
6172 512 -1948
6159 514 -1947
6173 519 -1955
6166 522 -1956
6161 525 -1958
6165 529 -1963
6159 531 -1964
6147 534 -1964
6151 537 -1968
6150 541 -1970
6145 543 -1972
6148 547 -1975
6143 550 -1977
6128 552 -1975
6124 554 -1976
6127 558 -1979
6126 561 -1981
6113 563 -1979
6109 566 -1980
6116 569 -1985
6111 572 -1985
6105 575 -1985
6112 578 -1989
6106 581 -1989
6099 583 -1988
6091 585 -1987
6090 588 -1989
6093 591 -1991
6079 593 -1988
6079 596 -1989
6084 599 -1992
6081 602 -1992
6077 604 -1992
6076 607 -1992
6078 610 -1994
6059 610 -1988
6055 613 -1988
6066 616 -1992
6059 618 -1990
6055 621 -1989
6055 623 -1989
6046 625 -1987
6060 629 -1991
6052 631 -1989
6043 632 -1986
6048 635 -1987
6038 636 -1984
6044 639 -1986
6041 642 -1984
6038 643 -1983
6038 646 -1983
6041 648 -1983
6038 650 -1981
6036 652 -1980
6036 655 -1979
6034 657 -1977
6023 658 -1972
6030 661 -1974
6023 662 -1970
6023 664 -1969
6040 668 -1973
6037 670 -1971
6041 672 -1970
6036 673 -1967
6028 674 -1963
6036 677 -1964
6029 678 -1960
6038 681 -1961
6033 682 -1957
6035 684 -1956
6036 686 -1954
6034 688 -1951
6031 689 -1948
6047 693 -1950
6034 693 -1944
6030 694 -1940
6043 697 -1941
6039 698 -1937
6034 699 -1933
6037 701 -1931
6032 702 -1926
6041 704 -1926
6042 706 -1923
6045 707 -1921
6041 708 -1916
6037 709 -1912
6045 711 -1911
6048 713 -1908
6036 712 -1901
6045 715 -1900
6041 715 -1894
6039 716 -1890
6044 718 -1888
6051 720 -1886
6051 721 -1882
6041 720 -1875
6046 722 -1872
6048 723 -1868
6047 724 -1863
6048 724 -1859
6043 725 -1853
6043 725 -1848
6048 727 -1845
6050 728 -1841
6059 729 -1839
6049 729 -1831
6039 728 -1823
6056 731 -1823
6050 730 -1816
6065 733 -1815
6060 732 -1808
6056 732 -1802
6052 732 -1795
6053 732 -1790
6063 734 -1787
6062 734 -1781
6056 733 -1774
6063 734 -1770
6057 734 -1762
6058 734 -1757
6064 735 -1752
6068 735 -1747
6071 735 -1742
6065 735 -1734
6062 734 -1727
6061 734 -1720
6074 735 -1717
6083 736 -1713
6075 735 -1705
6069 734 -1696
6073 734 -1691
6071 733 -1683
6075 733 -1678
6070 732 -1669
6069 731 -1662
6084 732 -1659
6085 732 -1652
6078 730 -1643
6082 730 -1637
6086 730 -1631
6079 728 -1622
6085 728 -1616
6080 727 -1607
6101 728 -1605
6107 728 -1599
6132 730 -1598
6149 731 -1594
6157 731 -1588
6179 732 -1586
6187 732 -1580
6207 733 -1577
6214 733 -1571
6242 735 -1570
6257 735 -1565
6337 743 -1576
6404 750 -1585
6435 752 -1583
6492 757 -1589
6570 764 -1598
6612 767 -1600
6645 769 -1598
6657 769 -1592
6661 767 -1583
6682 768 -1579
6698 768 -1573
6718 768 -1568
6743 769 -1564
6761 769 -1558
6779 769 -1553
6788 767 -1545
6788 765 -1535
6773 761 -1521
6772 758 -1511
6768 755 -1500
6772 753 -1491
6758 749 -1477
6756 746 -1467
6757 744 -1457
6740 739 -1443
6727 735 -1429
6730 733 -1420
6740 731 -1411
6726 727 -1398
6731 724 -1388
6734 721 -1378
6728 718 -1366
6723 714 -1355
6727 711 -1345
6722 708 -1333
6726 705 -1323
6716 701 -1310
6709 696 -1298
6694 692 -1284
6706 689 -1275
6721 687 -1267
6729 685 -1257
6766 685 -1253
6784 683 -1245
6813 682 -1239
6836 681 -1232
6867 680 -1226
6892 678 -1219
6917 676 -1211
6936 674 -1203
6969 673 -1197
6994 672 -1189
7007 669 -1180
7043 668 -1174
7064 665 -1165
7089 663 -1157
7121 661 -1150
7149 659 -1142
7183 658 -1135
7189 653 -1124
7228 652 -1118
7263 650 -1110
7373 655 -1114
7490 660 -1119
7565 662 -1117
7149 620 -1043
6954 598 -1002
7030 600 -1001.0001
6911 584 -972
6900 578 -958
6901 573 -946
6887 567 -932
6871 560 -918
6885 556 -907
6882 550 -895
6877 545 -882
6875 539 -870
6867 533 -856
6870 527 -845
6865 521 -832
6857 515 -818
6851 509 -806
6836 501.99997 -792
6844 497 -780
6839 491 -767
6835 484 -755
6838 479 -743
6842 473 -731
6826 466 -717
6826 460 -705
6821 453 -692
6817 447 -679
6815 440 -667
6822 435 -655
6813 428 -642
6821 422 -630
6791 413 -615
6779 406 -602
6782 400 -590
6782 393 -577
6784 387 -565
6779 380 -553
6774 373 -540
6816 368 -531
6840 362 -521
6858 356 -510
6909 352 -501
6929 346 -490
10515 514 -725
10504 503.00003 -705
10501 492 -686
10484 480 -666
10496 469 -648
10486 458 -629
10483 446 -610
10481 435 -591
10476 423 -571
10474 411 -552
10453 399 -533
10454 387 -514
10453 375 -495
10443 363 -476
10435 352 -458
10427 339 -439
10426 327 -420
10427 315 -402
10410 303 -383
10413 291 -364
10412 278 -346
10411 266 -327
10405 254.00002 -309
10402 241 -291
10392 229 -272
10385 216 -252.99998
10375 203 -235
10377 191 -217
10377 178 -199
10377 165 -181
10369 152 -163
10361 139 -144
10367 126 -126
10390 113 -109
10549 102 -92
10775 90 -76
10944 78 -58
11040 64 -39
11101 50 -21
11196 36 -2
11256 22 17
11316 7 36
11384 -6 56
11445 -22 75
11472 -37 95
11600 -53 115
11653 -68 135
11740 -84 156
11800 -100 176
11804 -116 196
11804 -132 216
11798 -148 235
11785 -164 254.00002
11794 -180 274
11791 -196 293
11789 -212 312
11835 -230 333
11770 -244 350
0 0 0
14455 -341 477
14432 -360 500
14416 -380 522
14414 -400 545
14409 -420 568
14403 -441 591
14433 -462 614
14462 -483 638
14552 -507.00003 665
14515 -526 686
14544 -548 710
14568 -570 734
14624 -593 759
14612 -614 781
14595 -634 803
14555 -653 823
14559 -675 845
14602 -698 870
14638 -721 894
14660 -744 917
14717 -768 943
14730 -790 965
14778 -815 990
14789 -837 1013
14843 -861 1038
14871 -885 1062
14900 -909 1085
14923 -932 1109
14974 -958 1134
15054 -986 1162
15118 -1011.9999 1188
15186 -1039 1215
15259 -1067 1243
15459 -1104 1280
15669 -1143 1320
15814 -1177 1355
15860 -1205 1381
15888 -1231 1405
15940 -1259 1431
15999 -1288 1459
15999 -1312 1480
16093 -1344 1511
16167 -1375 1539
16268 -1407 1570
18755 -1651 1836
18767 -1681 1861
18779 -1710 1887
18776 -1739 1912
18783 -1768 1937
18786 -1796 1961
18780 -1824 1984
16207.001 -1598 1732
16198.999 -1623 1753
16149 -1642 1768
16098 -1662 1782
16117.001 -1688 1804
16045 -1705 1816
16069 -1732 1838
16080 -1757 1859
16016.001 -1775 1871
16045 -1802 1894
18861 -2148 2249
18856 -2176 2270
18856 -2204 2293
18859 -2234 2316
18862 -2262 2338
18859 -2291 2359
18825 -2315 2376
18856 -2347 2402
18879 -2379 2426
18836 -2402 2441
18813 -2427 2459
18901 -2466 2491
18988 -2506 2523
19574 -2613 2622
20150 -2720 2721
20270 -2767 2759
20283 -2799 2782
20263 -2826 2800
20249 -2855 2820
20222 -2881 2837
20208 -2909 2855
20205 -2939 2876
20268 -2977 2904
20149 -2990 2908
20137 -3018 2925
20147 -3049 2947
22467 -3433 3308
22500 -3471 3334
22568 -3514 3366
22638 -3558 3398
23497 -3728 3549
23647 -3786 3593
23785 -3843 3636
23898 -3896 3675
24192 -3979 3742
24382 -4045 3793
24645 -4125 3856
24719 -4172 3889
24756 -4214 3916
24773 -4252 3940
24775 -4288 3962
24775 -4323 3983
24783 -4360 4004.0002
24783 -4395 4025
24795 -4432 4047
24803 -4468 4067.9998
24818 -4505 4091
24884 -4552 4121
24746 -4560 4117
24717 -4589 4131
26844 -5022 4507
26801 -5051 4520
27124 -5149 4594
27144 -5190 4617
27157 -5229 4639
27169 -5268 4661
27176 -5306 4681
27165 -5340 4699
27182 -5380 4719
27179 -5415 4737
27175 -5449 4755
27169 -5484 4771
27169 -5520 4789
27173 -5556 4807
27162 -5589 4822
27164 -5625 4839
27131 -5652 4850
26965 -5652 4836
26826 -5657 4827
26693 -5663 4819
26600 -5676 4817
26509 -5690 4816
26492 -5719 4827
26482 -5750 4841
26474 -5781 4853
26461 -5811 4865
26454 -5842 4877
26459 -5874 4892
26449 -5903 4903
26429 -5931 4912
26444 -5965 4928
26413 -5989 4934
26431 -6024 4950
26415 -6051 4959
26415 -6081 4970
26398 -6107 4979
26397 -6137 4990
26412 -6171 5003
26403 -6197 5013
26398 -6225 5022
26401 -6255 5033
26383 -6280 5039
26401 -6312 5053
26397 -6340 5061
26388 -6366 5069
26393 -6395 5079
26406 -6426 5089
26400 -6452 5098
26391 -6476 5103
26391 -6503 5111
26396 -6532 5120
26409 -6561 5130
26395 -6584 5135
26399 -6611 5144
26403 -6637 5151
26406 -6664 5158
26416 -6691 5166
26407 -6714 5171
26402 -6738 5175
26406 -6764 5182
26417 -6790 5190
26430 -6817 5197
26441 -6844 5204
26445 -6868 5210
26456 -6894 5216
26457 -6918 5221
26484 -6947 5231
26458 -6963 5228
26445 -6982 5229
26448 -7004 5233
26464 -7030 5239
26641 -7099 5277
26765 -7153 5304
26868 -7202 5327
26852 -7218 5326
26996 -7277 5356
26991 -7296 5357
27017 -7323 5363
27019 -7343 5365
27037 -7367 5369
27078 -7398 5378
27059 -7411 5375
27085 -7437 5380
27089 -7456 5381
27093 -7476 5381
27124 -7502 5387
27126 -7520 5387
27146 -7542 5390
27130 -7555 5385
27137 -7573 5386
27132 -7588 5382
27150 -7609 5384
27142 -7622 5380
27140 -7636 5378
27125 -7647 5372
27167 -7674 5377
27145 -7682 5370
27138 -7694 5365
27152 -7712 5364
27160 -7727 5362
27182 -7746 5362
27055 -7723 5333
30601 -8748 6027
30582 -8757 6018
30581 -8770 6012
30590 -8785 6008
30586 -8797 6000
26850 -7733 5262
30585 -8820 5988
30590 -8833 5981
30603 -8848 5977
30615 -8862 5972
30631 -8877 5967
30615 -8882 5956
0 0 0
0 0 0
0 0 0
0 0 0
0 0 0
0 0 0
0 0 0
0 0 0
0 0 0
0 0 0
0 0 0
0 0 0
0 0 0
0 0 0
0 0 0
0 0 0
0 0 0
0 0 0
0 0 0
0 0 0
0 0 0
0 0 0
0 0 0
0 0 0
0 0 0
0 0 0
0 0 0
0 0 0
0 0 0
0 0 0
0 0 0
0 0 0
0 0 0
0 0 0
0 0 0
0 0 0
0 0 0
0 0 0
0 0 0
0 0 0
0 0 0
0 0 0
0 0 0
26690 -7793 4685
26600 -7760 4654
26651 -7768 4646
26634 -7756 4628
26636 -7749 4612
26631 -7740 4594
26610 -7726 4575
26630 -7723 4561
26605 -7707 4540
26598 -7696 4521
26583 -7682 4501
26546 -7661 4478
26467 -7628 4447
21520 -6194 3601
21552 -6195 3592
21556 -6187 3578
21575 -6183 3567
21562 -6170 3549
21553 -6157 3533
21554 -6148 3518
21602 -6151 3510
21620 -6145 3498
21667 -6148 3490
21693 -6144 3478
21727 -6142 3468
21702 -6124 3448
21716 -6115 3434
21755 -6114 3424
21764 -6104 3409
21696 -6072 3382
21713 -6063 3369
21781 -6069 3363
21813 -6064 3350
21801 -6047 3332
21743 -6017 3306
21748 -6004 3290
21704 -5977 3266
21622 -5939 3237
21676 -5939 3228
21717 -5934 3216
21716 -5919 3198
21666 -5889 3174
21450 -5814 3125
21334 -5766 3090
21371 -5760 3078
21356 -5739 3059
21277 -5702 3029
21248 -5676 3007
21258 -5661 2991
21258 -5643 2973
19027 -5035 2645
19012 -5015 2626
18968 -4987 2604
18951 -4966 2586
18936 -4945 2567
19018 -4949 2562
19033 -4936 2548
19032 -4918 2531
19042 -4902 2516
19038 -4883 2499
19076 -4875 2487
19079 -4857 2470
19075 -4837 2453
18930 -4782 2417
18653 -4693 2365
18351 -4598 2310
17830 -4449 2229
17715 -4402 2198
17671 -4372 2177
17645 -4347 2158
17683 -4337 2146
17688 -4319 2131
17698 -4302 2116
17682 -4278 2098
17702 -4263 2084
17707 -4244 2068
17722 -4228 2053
17774 -4220 2043
17773 -4199 2027
17779 -4180 2010.9999
17782 -4159 1995
17800 -4142 1981
17811 -4123 1965
17791 -4097 1947
17837 -4086 1935
17818 -4060 1917
17853 -4045 1904
17825 -4015.9998 1884
17837 -3997 1868
17865 -3980 1855
17870 -3958 1839
17888 -3939 1824
17889 -3916 1807
17902 -3895 1792
17878 -3866 1773
17906 -3848 1758
17922 -3827 1743
17927 -3804 1727
17903 -3775 1708
17934 -3756 1693
17957 -3736 1679
17971 -3714 1663
17986 -3691 1648
17998 -3669 1632
17995 -3642 1615
18008 -3619 1599
18013 -3594 1582
18034 -3572 1568
18044 -3548 1551
18054 -3523 1535
17949 -3475 1510
17789 -3418 1480
17608 -3357 1448
17519 -3313 1425
17490 -3281 1406
17390 -3237 1382
17312 -3195 1359
17271 -3161 1340
17175 -3117 1317
17134 -3083 1298
17039 -3039 1275
16969 -3000 1254
16912 -2963 1235
16817 -2919 1212
16765 -2883 1193
16717 -2848 1174
16649 -2810 1155
16543 -2765 1132
16508 -2732 1115
16483 -2700 1098
16444 -2666 1080
16419 -2635 1064
16333 -2593 1044
16221.001 -2549 1021.9999
16163 -2512 1003.9999
16125.999 -2479 987
16066 -2442 969
15983 -2402 950
15897 -2362 931
15850 -2328 914
15787 -2291 897
15791 -2264 883
15777 -2235 869
15633 -2187 847
15548 -2147 829
15627 -2130 820
15552 -2093 803
15437 -2050 783
15398 -2017 769
15338 -1982 753
15298 -1949 738
15274 -1919 724
15207 -1882 708
15159 -1849 693
15110 -1815 678
15026 -1777 662
14982 -1745 648
14965 -1715 635
14938 -1684 622
14915 -1654 609
14858 -1620 595
14804 -1586 581
14773 -1555 568
14696 -1520 554
14633 -1486 540
14560 -1450 526
11962 -1169 422
11962 -1146 413
11978 -1124 404
11976 -1101 395
11896 -1070 384
11855 -1044 373
11856 -1021 364
11856 -998 356
11833 -973 346
11839 -950 338
11822 -926 329
11819 -902 320
11824 -879 312
11830 -856 303
11822 -832 295
11814 -809 287
11818 -785 279
11830 -762 271
11822 -738 262
11826 -714 254.00002
11821 -690 246
11820 -667 238
11828 -643 231
11832 -619 223
11830 -595 215
11833 -572 208
11824 -547 200
11822 -523 193
11803 -499 185
11788 -474 178
11750 -448 170
11700 -422 162
11677 -398 155
11660 -373 148
11643 -349 141
11623 -324 134
11609 -299 127.00001
11598 -275 120
11537 -250 113
11543 -226 107
11508 -202 100
11490 -177 94
11463 -154 88
11445 -129 81
11420 -105 75
11409 -82 69
11380 -58 63
11348 -34 58
11342 -11 52
11335 12 46
11313 36 41
11301 59 36
11270 82 30
11268 107 25
11261 130 20
11249 153 15
11216 176 10
11219 200 5
11190 223 0
11154 246 -3
11167 269 -8
11140 292 -12
11115 315 -17
11122 339 -21
11094 361 -25
11085 384 -30
11086 408 -34
11078 430 -38
11061 453 -42
11051 476 -45
11037 499 -49
11012 521 -53
10977 542 -56
10908 562 -59
10881 583 -63
10882 606 -66
10874 628 -69
10861 651 -72
10835 672 -75
10815 693 -78
10786 714 -81
10774 736 -83
10775 758 -86
10719 777 -88
10691 797 -91
10658 817 -93
10380 817 -93
10470 846 -96
10483 869 -98
10437 887 -100
10418 907 -102
10407 928 -104
10414 950 -106
10425 972 -108
10434 995 -110
10442 1016.9999 -112
10457 1041 -114
10474 1064 -115
10484 1087 -117
10502 1110 -119
10523 1134 -120
10524 1156 -122
10547 1180 -123
10556 1203 -125
10575 1227 -126
10597 1251 -127.00001
10608 1273 -128
10623 1297 -129
10630 1319 -130
10647 1342 -131
10659 1366 -132
10682 1390 -133
10686 1412 -134
10708 1437 -134
10722 1460 -135
10739 1484 -136
10750 1507 -136
10785 1533 -137
10788 1555 -137
10806 1579 -137
10820 1603 -137
10825 1625 -137
10837 1648 -137
10863 1673 -138
10873 1696 -137
10896 1720 -137
10908 1744 -137
10923 1767 -137
10932 1790 -136
10944 1813 -136
10956 1836 -135
10973 1860 -135
10999 1885 -135
10999 1906 -134
11024 1932 -133
11032 1954 -132
11047 1977 -131
11076 2003 -131
11081 2025.0001 -129
11098 2049 -128
11117 2073 -127.00001
11118 2094 -126
11141 2119 -125
11155 2142 -123
11163 2164 -122
11185 2189 -120
11186 2209 -119
11200 2232 -117
11226 2258 -116
11220 2277 -114
11247 2302 -112
11264 2326 -110
11269 2347 -108
11286 2370 -107
11303 2394 -105
11298 2413 -102
11316 2436 -100
11346 2462 -98
11362 2485 -96
11366 2505 -93
11382 2528 -91
11391 2549 -89
11405 2572 -86
11414 2593 -84
11435 2617 -81
11457 2641 -78
11453 2659 -76
11478 2683 -73
11492 2706 -70
11509 2728 -67
11506 2746 -64
11524 2769 -61
11524 2788 -58
11546 2811 -55
11561 2833 -52
11572 2854 -48
11590 2877 -45
11586 2893 -42
11611 2918 -39
11615 2937 -35
11637 2960 -32
11646 2980 -28
11654 2999 -25
11666 3020 -21
11675 3040 -17
11690 3061 -14
11697 3080 -10
11697 3097 -6
11719 3119 -2
11730 3139 1
11746 3160 5
11756 3180 9
11759 3197 13
11780 3219 17
11796 3240 21
11814 3261 25
11825 3280 29
11826 3296 33
11841 3316 38
11846 3334 42
11865 3355 47
11864 3370 51
11875 3389 55
11880 3405 60
11880 3420 64
11915 3445 69
11922 3462 73
11926 3478 78
11933 3494 82
11936 3510 87
11960 3531 92
11947 3541 97
11967 3562 102
11973 3577 106
11989 3596 111
12008 3615 116
12005 3627 121
12013 3643 126
12017 3658 131
12035 3676 136
12028 3687 141
12048 3706 146
12056 3721 151
12059 3734 156
12074 3751 161
12073 3763 166
12071 3775 171
12083 3790 176
12105 3809 181
12110 3822 187
12123 3838 192
12108 3844 197
12119 3859 202
12120 3870 207
12133 3885 212
12148 3901 218
12147 3911 223
12167 3928 229
12162 3936 234
12170 3949 239
12167 3958 245
12188 3975 250
12182 3982 255
12188 3993 260
12206 4008 266
12204 4017.0002 271
12205 4026 277
12210 4035.9998 282
12265 4063.0002 289
12216 4054.9998 293
12219 4064.0002 298
12221 4073 303
12236 4086 309
12244 4097 315
12254 4108 320
12255 4115 325
12254 4122 331
12249 4128 336
12266 4140 342
12265 4146 347
12268 4154 352
12268 4161 358
12279 4171 363
12274 4175 369
12281 4183 374
12283 4189 380
12293 4198 385
12280 4199 390
12298 4210 396
12282 4210 401
12280 4214 406
12313 4230 412
12311 4234 417
12322 4242 423
12316 4244 428
12325 4251 433
12326 4255 439
12326 4259 444
12319 4260 449
12328 4266 454
12378 4286 462
12401 4297 468
12416 4305 473
12443 4317 480
12446 4320 485
12455 4326 491
12475 4335 496
12479 4338 501.99997
12516 4352 508.00003
12510 4352 513
12512 4353 518
12530 4361 524
12504 4353 528
12526 4361 534
15553 5416 669
15561 5419 676
15556 5417 682
15550 5415 688
15551 5415 694
15542 5412 700
15567 5419 706
15567 5419 713
15575 5420 719
15585 5422 725
15583 5420 731
15588 5420 737
15582 5416 743
15612 5424 751
15614 5422 756
15622 5422 762
15643 5426 769
15643 5423 775
15641 5419 780
15682 5429 788
15693 5429 795
15701 5428 800
15721 5430 807
15732 5430 813
15770 5438 821
15783 5437 827
15806 5440 834
15833 5443 841
15845 5442 847
15857 5440 853
15867 5437 858
15892 5439 866
15935 5447 873
15998 5462 882
16080 5483 891
16127.001 5491 899
16139 5488 905
16146.999 5482 911
16148.001 5474 916
16160 5470 921
16155.001 5460 926
16184 5461 933
16209 5460 939
16250.999 5465 946
16301.001 5472 954
16316.999 5468 960
16341.999 5466 966
16410 5478 975
16454 5482 982
16497 5486 990
16511 5480 995
16573 5489 1003
16643 5500 1011.9999
16666 5496 1016.9999
16695 5494 1023
16778 5508 1033
16804 5504 1039
16855 5508 1046
16886 5505 1052
16927 5505 1059
16955 5500 1065
17002 5502 1072
17057 5505 1079
17065 5493 1084
17093 5488 1090
17130 5485 1096
17143 5474 1101
17187 5473 1107
17173 5453 1109
17190 5442 1114
17184 5424 1117
17241 5426 1125
17236 5408 1127
17236 5391 1131
17155 5349 1129
17080 5308 1127
17080 5291 1130
17083 5274 1133
17134 5272 1139
17152 5260 1144
17143 5239 1146
17156 5224 1149
17181 5213 1154
17298 5230 1164
17358 5229 1171
17375 5215 1174
17410 5206 1179
17445 5196 1184
17408 5165 1183
17429 5151 1187
17417 5127 1188
17410 5104 1190
17387 5077 1190
17308 5033 1186
16544 4791 1136
16465 4747 1132
16467 4728 1133
16467 4707 1135
16451 4682 1135
16480 4669 1138
16447 4638 1137
16483 4627 1141
16460 4599 1140
16463 4579 1141
16446 4552 1141
16415 4521 1139
16434 4504 1142
16449 4486 1143
16455 4465 1144
16513 4457 1148
16538 4441 1150
16572 4427 1153
16570 4403 1153
16555 4375 1152
16618 4368 1156
16631 4347 1157
16655 4329 1158
16778 4336 1167
17165 4412 1193
17486 4468 1215
17503 4446 1215
17519 4424 1216
17530 4401 1216
17502 4367 1213
17508 4342 1212
17491 4311 1210
17425 4268 1204
17431 4242 1203
17450 4220 1203
17464 4195 1202
17428 4159 1199
17396 4124 1195
17362 4087.9998 1191
17367 4060.9998 1189
17350 4028.9998 1186
17330 3996 1183
17318 3965 1179
17336 3941 1178
17328 3911 1175
17241 3863 1167
17280 3843 1167
17268 3812 1163
17310 3792 1163
17300 3761 1160
17303 3733 1157
17212 3684 1147
17175 3646 1141
17105 3602 1133
17141 3581 1133
17165 3556 1131
17132 3520 1125
17126 3489 1120
17114 3457 1116
17060 3416 1108
17079 3390 1105
16969 3337 1094
17027 3319 1093
17007 3285 1087
17004 3254 1083
16954 3214 1075
16924 3177 1068
16900 3143 1062
16824 3099 1052
16846 3072 1048
16845 3040 1043
16817 3005 1036
16788 2969 1028
16747 2931 1020
16737 2899 1014.0001
16682 2858 1005
16666 2825 998
16686 2798 994
16655 2761 986
16603 2722 977
16595 2690 970
16572 2654 962
16541 2618 953
16458 2574 942
16492 2548 937
16465 2513 929
16395 2472 918
16402 2442 912
16357 2404 902
16358 2374 895
16198 2319 879
16268 2298 875
16222 2261 865
16224.001 2230 858
16158.001 2190 847
16113.001 2153 836
16056 2114 826
16025.999 2079 816
15978 2042 806
15929 2005.0001 795
15844 1963 782
15785 1925 771
15734 1889 760
15704 1855 750
15653 1818 739
15600 1782 728
15564 1748 718
15505 1711 706
15463 1677 696
12445 1325 552
12419 1298 544
12404 1272 536
12359 1243 526
12346 1218 518
12319 1191 510
12332 1168 501.99997
12362 1146 496
12209 1108 482
12199 1083 473
12203 1060 466
12166 1033 456
12128 1005 447
12119 981 438
12141 959 431
12159 936 423
12175 913 415
12142 887 405
12048 856 393
12014 830 383
11995 805 374
11986 781 365
11947 754 355
11926 730 345
11901 705 336
11896 681 326
11867 656 317
11840 631 307
11830 608 297
11817 584 287
11807 560 278
11801 537 268
11780 513 258
11765 489 248
11758 465 238
11763 443 229
11767 420 219
11776 397 209
11769 374 199
11781 351 189
11781 328 179
11768 305 168
11749 281 158
11690 258 147
11632 234 136
11579 210 125
11565 187 114
11541 165 103
11490 141 92
11432 119 81
11423 97 71
11379 75 60
11324 53 49
11299 31 38
11265 9 27
11224 -11 16
11194 -32 6
11126 -53 -4
11123 -74 -15
11078 -95 -26
11011 -115 -37
10898 -135 -47
10781 -154 -58
10668 -172 -68
10525 -190 -78
10424 -208 -88
10398 -226 -98
10401 -246 -109
10393 -265 -119
10390 -284 -130
10402 -304 -141
10406 -324 -152
10406 -342 -163
10414 -362 -174
10416 -381 -186
10425 -400 -197
10432 -420 -208
10426 -439 -219
10429 -458 -231
10443 -477 -243
10441 -496 -254.00002
10452 -515 -266
10454 -534 -278
10457 -553 -289
10460 -572 -301
10447 -590 -312
10440 -608 -324
10442 -626 -335
10422 -643 -347
10421 -662 -358
10409 -679 -370
10403 -697 -382
10391 -714 -393
10386 -732 -405
10385 -750 -417
10375 -767 -429
10365 -784 -440
10369 -802 -453
10355 -819 -464
10338 -834 -475
10331 -851 -487
10335 -869 -500
10328 -886 -512
10327 -903 -524
10308 -919 -535
10312 -936 -548
10299 -952 -560
10290 -968 -572
10300 -986 -585
10298 -1003 -597
10305 -1021 -610
10316 -1038 -624
10304 -1054 -635
10316 -1071 -649
10330 -1089 -662
7001 -749 -457
6979 -758 -465
6965 -768 -472
6886 -770 -476
6911 -783 -486
6880 -791 -492
6875 -801 -500
6839 -807 -505.99997
6820 -815 -513
6819 -825 -522
6841 -839 -532
6824 -847 -539
6839 -859 -549
6838 -869 -558
6823 -877 -565
6847 -890 -575
10272 -1351 -877
10234 -1361 -886
10196 -1371 -896
10171 -1382 -907
10144 -1393 -917
10101 -1402 -926
10076 -1413 -936
10048 -1423 -947
9995 -1430 -954
9979 -1441 -965
9947 -1451 -975
9908 -1458 -984
9868 -1466 -992
9834 -1474 -1001.0001
9806 -1483 -1010
9766 -1490 -1019.0001
9739 -1499 -1028
9710 -1507 -1038
9687 -1517 -1048
9652 -1524 -1056
9639 -1534 -1067
9604 -1541 -1075
9565 -1547 -1083
9543 -1556 -1092
9517 -1564 -1102
9480 -1570 -1109
9452 -1577 -1118
9435 -1585 -1128
9393 -1590 -1135
9378 -1599 -1145
9352 -1606 -1153
9320 -1611 -1161
9300 -1619 -1170
9262 -1623 -1177
9243 -1631 -1186
9200 -1634 -1192
9186 -1642 -1202
9152 -1646 -1209
9127 -1652 -1217
9097 -1657 -1224
9090 -1666 -1234
9055 -1669 -1240
9032 -1675 -1249
8992 -1677 -1254
8962 -1681 -1261
8935 -1686 -1268
8915 -1691 -1276
8899 -1697 -1285
8882 -1703 -1293
8852 -1707 -1300
8833 -1712 -1307
8808 -1716 -1314
8779 -1719 -1320
8756 -1723 -1327
8678 -1716 -1326
8678 -1725 -1336
8677 -1733 -1347
8661 -1737 -1354
8664 -1746 -1365
8638 -1749 -1371
8604 -1750 -1376
8583 -1754 -1383
8568 -1758 -1390
8545 -1761 -1397
8506 -1761 -1400
8488 -1764 -1407
8457 -1765 -1411
8440 -1769 -1418
8417 -1771 -1424
8404 -1775 -1432
8382 -1777 -1437
8356 -1778 -1442
8347 -1783 -1450
8327 -1785 -1455
8309 -1788 -1461
8284 -1789 -1466
8267 -1791 -1472
8241 -1792 -1477
8227 -1795 -1483
8228 -1801 -1492
8187.0005 -1798 -1493
8180.0005 -1802 -1501
8154.0005 -1802 -1505
8137.9995 -1804 -1511
8108 -1802 -1514
8092 -1804 -1519
8086.0005 -1808 -1526
8087 -1813 -1535
8057 -1812 -1537
8034.0005 -1812 -1541
8010.9995 -1811 -1545
7997 -1813 -1550
7978 -1813 -1555
7958 -1813 -1559
7935 -1812 -1562
7924 -1814 -1567
7917 -1817 -1574
7920 -1821 -1582
7909 -1823 -1588
7894 -1824 -1592
7883 -1825 -1597
7875 -1827 -1603
7854 -1826 -1606
7843 -1827 -1611
7829 -1827 -1615
7815 -1827 -1620
7807 -1829 -1625
7795 -1829 -1630
7776 -1828 -1633
7754 -1826 -1635
7739 -1825 -1638
7728 -1826 -1642
7718 -1826 -1647
7705 -1826 -1651
7697 -1827 -1656
7678 -1825 -1658
7660 -1823 -1660
7668 -1827 -1668
7654 -1826 -1672
7628 -1822 -1672
7613 -1820 -1675
7605 -1821 -1679
7596 -1820 -1683
7537 -1808 -1675
7553 -1814 -1685
7532 -1810 -1685
7543 -1815 -1694
7513 -1809 -1692
7524 -1813 -1700
7529 -1816 -1707
7498 -1809 -1705
7479 -1806 -1706
7492 -1811 -1714
7469 -1806 -1714
7458 -1804 -1716
7441 -1801 -1717
7441 -1802 -1722
7416 -1796 -1721
7420 -1798 -1727
7422 -1799 -1732
7415 -1798 -1734
7404 -1796 -1736
7404 -1796 -1741
7382 -1791 -1740
7386 -1792 -1745
7363 -1786 -1744
7366 -1787 -1749
7351 -1784 -1749
7356 -1785 -1754
7347 -1782 -1756
7340 -1780 -1758
7341 -1780 -1762
7328 -1776 -1762
7338 -1778 -1768
7330 -1776 -1770
7327 -1774 -1773
7339 -1776 -1779
7319 -1771 -1777
7319 -1770 -1781
7308 -1766 -1781
7302 -1764 -1783
7287 -1759 -1782
7280 -1756 -1783
7253 -1748 -1779
7256 -1748 -1783
7243 -1743 -1782
7240 -1741 -1784
7233 -1737 -1785
7230 -1735 -1787
7229 -1733 -1788
7225 -1731 -1790
7232 -1730 -1793
7223 -1726 -1793
7216 -1722 -1794
7208 -1718 -1794
7210 -1717 -1796
7213 -1715 -1799
7212 -1713 -1800
7217 -1711 -1803
7217 -1709 -1805
7223 -1708 -1807
7217 -1704 -1807
7206 -1698 -1806
7189 -1692 -1803
7165 -1683 -1798
7150 -1677 -1795
7147 -1673 -1795
7147 -1670 -1797
7155 -1669 -1799
7142 -1663 -1797
7148 -1661 -1799
7161 -1661 -1803
7163 -1658 -1804
7170 -1656 -1806
7138 -1645 -1798
7145 -1644 -1801
7139 -1639 -1799
7135 -1634 -1798
7153 -1634 -1803
7162 -1633 -1805
7158 -1628 -1804
7153 -1623 -1803
7148 -1618 -1801
7136 -1611 -1798
7158 -1612 -1803
7135 -1603 -1797
7143 -1600 -1798
7159 -1599 -1801
7152 -1594 -1799
7175 -1594 -1804
7184 -1592 -1805
7195 -1590 -1807
7186 -1583 -1804
7182 -1577 -1801
7185 -1573 -1801
7186 -1568 -1800
7191 -1565 -1800
7187 -1559 -1797
7199 -1556 -1799
7211 -1554 -1800
7216 -1550 -1799
7227 -1547 -1801
7234 -1543 -1800
7245 -1540 -1801
7233 -1532 -1796
7210 -1522 -1789
7201 -1514 -1784
7235 -1516 -1790
7241 -1511 -1789
7223 -1502 -1782
7196 -1491 -1773
7198 -1486 -1771
7226 -1485 -1775
7259 -1486 -1781
7238 -1476 -1773
7273 -1477 -1778
7244 -1465 -1768
7290 -1468 -1776
7255 -1455 -1765
7261 -1450 -1763
7274 -1446 -1763
7281 -1441 -1761
7290 -1436 -1759
7285 -1429 -1755
7288 -1423 -1752
7318 -1423 -1755
7340 -1420 -1757
7355 -1416 -1756
7357 -1410 -1753
7352 -1402 -1747
7364 -1398 -1746
7352 -1388 -1739
7396 -1390 -1745
7404 -1384 -1742
7395 -1375 -1736
7386 -1366 -1729
7435 -1368 -1736
7407 -1356 -1724
7408 -1349 -1720
7440 -1347 -1722
7455 -1342 -1720
7452 -1335 -1715
7454 -1327 -1710
7465 -1322 -1707
7474 -1316 -1704
7525 -1317 -1710
7526 -1309 -1704
7530 -1302 -1700
7557 -1299 -1700
7568 -1293 -1697
7570 -1286 -1691
7577 -1279 -1687
7578 -1271 -1681
7616 -1269 -1683
7635 -1264 -1681
7645 -1258 -1677
7654 -1251 -1672
7635 -1239 -1661
7637 -1231 -1655
7653 -1226 -1652
7681 -1222 -1651
7678 -1213 -1643
7706 -1209 -1642
7710 -1201 -1636
7762 -1200 -1640
7779 -1194 -1636
7795 -1188 -1632
7767 -1175 -1618
7830 -1176 -1624
7851 -1170 -1620
7850 -1161 -1612
7868 -1154 -1608
7868 -1146 -1600
7881 -1139 -1595
7874 -1128 -1585
7853 -1116 -1572
7924 -1117 -1578
7954 -1112 -1576
7964 -1104 -1569
7970 -1096 -1562
7991 -1090 -1557
8017 -1084 -1553
8036.9995 -1077 -1548
8052 -1070 -1542
8064 -1062 -1535
8087 -1056 -1530
8112.0005 -1049 -1526
8130.9995 -1042 -1520
8159.0005 -1036 -1515
8170.9995 -1028 -1508
8201 -1021.9999 -1503
8219 -1014.0001 -1497
8237 -1007 -1490
8264 -1000 -1485
8235 -987 -1469
8262 -980 -1464
8318 -977 -1463
8317 -967 -1453
8366 -963 -1451
8393 -956 -1445
8417 -948 -1438
8452 -942 -1433
8466 -934 -1424
8492 -927 -1418
8522 -920 -1411
8533 -911 -1402
8560 -903 -1394
8597 -897 -1389
8615 -888 -1380
8641 -881 -1373
8669 -873 -1365
8692 -865 -1357
8720 -858 -1349
8739 -849 -1340
8754 -840 -1330
8787 -833 -1323
8827 -826 -1316
8843 -817 -1306
8893 -811 -1300
8929 -804 -1292
8961 -796 -1284
8984 -787 -1274
9028 -781 -1267
9046 -771 -1256
9078 -763 -1247
9109 -755 -1238
9141 -747 -1228
9174 -739 -1219
9205 -730 -1209
9233 -721 -1198
9276 -714 -1189
9311 -705 -1179
9335 -696 -1168
9381 -689 -1159
9422 -680 -1149
9451 -671 -1137
9489 -663 -1127
9527 -654 -1116
9564 -646 -1105
9594 -637 -1093
9638 -629 -1083
9674 -620 -1071
9720 -612 -1060
9760 -603 -1049
9803 -594 -1037
9855 -586 -1026
9887 -577 -1013
9911 -567 -999
9970 -559 -989
