# .PCD v0.7 - Point Cloud Data file format
VERSION 0.7
FIELDS x y z
SIZE 4 4 4
TYPE F F F
COUNT 1 1 1
WIDTH 3011
HEIGHT 1
VIEWPOINT 0 0 0 1 0 0 0
POINTS 3011
DATA ascii
11251 -18 19
11309 0 34
11367 18 50
11410 37 66
11485 55 83
11570 75 100
11592 94 116
11634 113 133
11738 133 151
11776 152 168
11790 171 185
11783 190 202
11763 208 218
11762 227 235
11768 245 252
11764 264 269
11760 282 286
11775 301 303
11793 319 321
11844 339 340
11870 358 358
14569 462 461
14617 486 484
14660 510 507.00003
14753 536 532
14865 563 558
14984 590 585
15036 614 610
15139 641 636
15239 668 663
15326 694 690
15439 722 719
15520 750 746
15613 777 774
15659 802 800
15770 831 830
15894 860 861
15984 888 890
16096.001 918 921
16190.001 947 952
16305 976 983
16391 1005 1014.0001
16541 1037 1049
16655 1068 1082
16748 1097 1114
16798 1124 1143
17008 1161 1184
17178 1197 1222
17272 1227 1256
17290 1252 1284
17261 1273 1309
17215 1293 1332
17225 1317 1360
17191 1337 1384
17168 1358 1409
17159 1381 1436
17153 1403 1462
17154 1425 1489
17148 1447 1516
17150 1469 1543
17116 1488 1567
17116 1510 1594
17106 1531 1620
17096 1552 1646
17107 1574 1674
17132 1598 1704
17123 1618 1730
17119 1638 1756
17114 1659 1783
17111 1680 1810
17120 1701 1838
17086 1718 1861
17122 1742 1892
17117 1762 1919
17169 1787 1952
21678 2282 2499
21875 2328 2557
21972 2364 2603
22016 2394 2642
22038 2421 2681
22057 2449 2718
22078 2476 2756
22096 2502 2792
22118 2529 2830
22148 2557 2869
22161 2582 2905
22189 2609 2943
22198 2634 2979
22238 2663 3020
22269 2690 3059
22306 2718 3099
22446 2758 3153
22666 2808 3220
22950 2866 3295
23204 2921 3368
23395 2969 3432
23812 3046 3531
24246 3125 3633
24350 3162 3686
24368 3188 3726
24354 3209 3761
24341 3231 3797
24347 3254 3835
24324 3274 3868
24331 3297 3907
27828 3797 4511
27738 3810 4539
27730 3834 4580
27743 3860 4624
27752 3886 4667
27750 3910 4709
27767 3936 4754
27777 3961 4797
27793 3987 4842
27793 4011.0002 4883
27798 4034.9998 4926
27820 4060.9998 4971
27819 4084 5012
27848 4110 5059
27836 4131 5097
27849 4154 5141
27874 4179 5186
27946 4212 5241
27965 4236 5285
27976 4258 5327
27988 4281 5370
28026 4308 5418
28037 4330 5460
27988 4342 5490
27960 4357 5525
27954 4376 5563
27956 4395 5603
27947 4413 5641
27940 4431 5678
27923 4447 5714
27900 4461 5748
27903 4479 5786
27883 4494 5821
27876 4510 5857
27874 4527 5895
27888 4546 5936
27931 4570 5983
27978 4595 6031
28055 4623 6085
28077 4643 6127
28077 4658 6164
28050 4669 6195
28044 4684 6230
28032 4697 6264
28038 4712 6302
28026 4725 6336
28000 4735 6365
27995 4748 6400
27988 4761 6434
27963 4770 6462
27944 4780 6493
27946 4794 6529
27949 4807 6563
27918 4814 6591
27934 4829 6629
27918 4838 6659
27883 4844 6685
27890 4857 6720
27879 4866 6750
27855 4873 6776
27870 4886 6813
27867 4897 6844
27818 4898 6865
47979 8466 11895
47963 8480 11946
47950 8493 11996
47940 8507 12047
47927 8520 12097
47900 8531 12142
47890 8544 12192
47866 8553 12238
47846 8563 12284
47845 8577 12334
47822 8587 12377
47816 8596 12426
47791 8605 12469
47789 8617 12518
47776 8625 12563
47764 8634 12608
47750 8642 12652
47731 8649 12693
47723 8656 12739
47705 8663 12779
47688 8668 12820
47663 8673 12859
47667 8681 12906
47612 8679 12934
47599 8683 12973
47593 8688 13015
47590 8694 13057
47574 8697 13093
47556 8699 13130
47538 8701 13166
47511 8701 13198
47505 8704 13236
47508 8709 13276
47498 8711 13312
47497 8713 13350
47489 8714 13386
47481 8716 13420
47473 8716 13455
47456 8714 13486
47452 8715 13520
47447 8714 13554
47435 8711 13585
47409 8706 13612
47427 8709 13650
47424 8707 13682
47402 8702 13708
47412 8702 13743
47409 8699 13774
47386 8692 13798
47387 8690 13828
47372 8684 13853
47378 8682 13884
47356 8674 13906
47353 8668 13933
47344 8662 13957
47341 8657 13983
47314 8645 14002
47285 8633 14019
47312 8633 14052
47309 8625 14075
47309 8618 14099
47289 8606 14117
47274 8597 14134
47251 8584 14149
47229 8571 14164
47224 8561 14184
47196 8547 14195
47199 8538 14216
47175 8523 14228
47164 8512 14243
47160 8498 14260
47149 8486 14274
47141 8473 14288
47141 8461 14305
47135 8447 14319
47103 8429 14324
47125 8420 14344
47084 8399 14346
47132 8394 14374
47129 8380 14385
47128 8365 14397
47118 8349 14405
47121 8335 14416
47120 8319 14426
47119 8303 14436
47110 8284 14442
47117 8270 14452
47128 8254 14464
47111 8233 14466
47114 8216 14474
47114 8199 14479
47119 8182.9995 14485
47112 8163 14488
47115 8144 14493
47103 8121.9995 14493
47082 8099 14490
47050 8075 14482
47034 8050.9995 14479
47040 8031.9995 14482
47050 8014 14485
47047 7992 14484
47030 7967 14479
47050 7950 14483
47049 7927 14480
47031 7901 14472
47052 7883 14475
47036 7857 14467
47052 7837 14467
47050 7812 14462
47046 7787 14455
47072 7767 14457
47074 7743 14451
47054 7714 14437
47091 7696 14440
47090 7670 14431
47083 7643 14420
47084 7617 14410
47086 7591 14400
47091 7565 14391
47107 7540 14384
47110 7514 14372
47094 7484 14354
47117 7461 14348
47108 7431 14331
47147 7409 14327
47121 7376 14304
47135 7350 14292
47137 7321 14276
47148 7293 14263
47150 7264 14245
47155 7236 14227
47187 7209 14219
47197 7181 14201
47123 7139 14159
47093 7104 14129
47089 7071 14106
47115 7045 14092
47120 7014 14071
47133 6983 14052
47144 6953 14031
47118 6916 13999
47141 6888 13981
47170 6859 13964
47168 6827 13937
47185 6795 13915
47217 6767 13897
47205 6731 13865
47210 6699 13836
47231 6666 13814
47228 6632 13784
47245 6600 13758
47248 6567 13728
47264 6534 13701
47277 6500 13672
47299 6467 13646
47312 6433 13616
47298 6396 13578
47330 6364 13552
47351 6332 13523
47336 6293 13483
47348 6258 13450
47375 6226 13421
47385 6190 13386
47391 6154 13349
47396 6117 13312
47410 6082 13277
47429 6045 13242
47453 6010 13208
47462 5973 13169
47486 5937 13134
47495 5901 13093
47499 5863 13051
47543 5830 13020
47539 5791 12975
47543 5752 12931
47574 5717 12894
47579 5678 12850
47594 5640 12807
47593 5600 12760
47627 5565 12721
47632 5525 12674
47657 5488 12632
47685 5451 12590
47694 5412 12542
47712 5373 12497
47749 5338 12456
47741 5296 12402
47761 5258 12355
47781 5219 12308
47793 5179 12258
47827 5143 12213
47830 5102 12160
47847 5062 12109
47878 5026 12062
47884 4985 12008
28164 2907 7029
28157 2882 6994
28186 2861 6968
28155 2834 6926
28166 2810 6894
46596 4608 11348
46441 4552 11252
46355 4503 11173
46348 4462 11113
46330 4421 11050
28252 2671 6702
28241 2645 6662
45378 4210 10646
46120 4239 10759
46065 4194 10686
45959 4144 10600
45184 4035.9998 10361
44891 3970 10233
44858 3928 10164
28358 2458 6386
28361 2434 6348
28403 2413 6317
44428 3736 9820
44437 3698 9759
44453 3660 9698
44466 3622 9637
44455 3582 9571
44502 3548 9517
28456 2243 6043
28503 2222 6011
28503 2197 5969
28499 2172 5925
35751 2694 7379
35577 2649 7289
36321 2673 7387
35778 2603 7222
35576 2557 7126
35553 2526 7067
35538 2494 7009
35664 2472 6978
36206 2479 7027
23335 1578 4492
23289 1555 4446
23299 1535 4410
23313 1517 4376
23315 1497 4338
28825 1826 5317
28846 1803 5273
28889 1782 5234
28847 1756 5180
28789 1728 5122
28787 1704 5073
28797 1680 5027
28809 1657 4980
28789 1632 4928
28782 1608 4877
28769 1584 4826
28729 1558 4770
28739 1535 4722
28708 1510 4667
28688 1486 4614
28513 1454 4536
27817 1396 4377
0 0 0
26989 1311 4152
26682 1275 4056.0002
26550 1248 3990
26419 1221 3923
26045 1184 3821
25771 1151 3734
23889 1048 3418
24037 1036 3396
24032 1016.9999 3351
24005 998 3303
19777 807 2685
19741 791 2644
19697 774 2602
19707 760 2566
19729 746 2533
19741 732 2498
18046 656 2249
17967 640 2205
18017 629 2178
17970 614 2138
17983 601 2105
17969 588 2069
17970 576 2035.0001
17921 561 1995
17933 549 1962
17967 538 1931
17975 526 1897
17981 513 1862
17960 500 1825
17972 489 1792
17957 476 1755
17965 465 1721
17966 453 1686
17970 441 1651
17967 430 1615
17953 418 1578
17969 407 1545
17957 395 1507
17893 382 1467
17631 366 1409
17424 351 1359
17311 338 1315
17150 324 1268
17011 312 1224
16856 299 1179
16678 286 1132
16585 275 1092
16470 263 1051
16273.001 250.99998 1005
16148.001 240 964
16017 229 924
15901 218 884
15778 208 845
15613 197 804
15491 188 766
15391 178 730
15212 168 690
15079 159 653
14963 150 617
14903 142 583
14806 134 549
14662 126 513
14535 118 479
11871 90 367
11811 84 340
11785 79 315
11774 73 290
11773 68 265
11790 63 241
11791 58 216
11800 53 192
11755 48 167
11625 42 140
11590 37 115
11460 32 90
11378 28 66
11290 23 41
11223 18 17
11086 14 -6
11052 10 -28
10883 6 -51
10656 2 -72
10417 -1 -93
10372 -4 -115
10371 -8 -137
10386 -11 -159
10377 -15 -180
10390 -18 -203
10404 -21 -224
10412 -24 -247
10413 -27 -269
10423 -30 -291
10430 -33 -313
10427 -36 -335
10443 -39 -358
10445 -41 -380
10450 -44 -403
10461 -47 -425
10472 -49 -447
10468 -52 -469
10476 -54 -492
10482 -56 -515
10481 -59 -537
10495 -61 -559
10506 -63 -582
10516 -65 -604
10531 -67 -627
10526 -69 -649
10536 -71 -672
10544 -72 -694
6964 -49 -473
6928 -49 -485
6890 -50 -497
6824 -51 -505.99997
6823 -51 -521
6799 -52 -533
6808 -53 -548
6812 -54 -563
6805 -54 -576
6797 -55 -590
10226 -84 -909
10190 -84 -927
10113 -84 -941
10073 -84 -958
10026 -85 -974
9963 -85 -988
9924 -85 -1005
9874 -85 -1020
9830 -85 -1036
9777 -84 -1050
9740 -84 -1066
9683 -84 -1080
9636 -84 -1094
9571 -83 -1107
9506 -82 -1118
9461 -82 -1132
9428 -81 -1147
9387 -81 -1161
9327 -80 -1173
9301 -79 -1188
9257 -79 -1201
9219 -78 -1214
9175 -77 -1226
9151 -76 -1242
9100 -75 -1253
9074 -74 -1267
9021 -73 -1277
8999 -72 -1292
8956 -71 -1303
8912 -69 -1314
8883 -68 -1327
8844 -67 -1338
8792 -65 -1348
8765 -64 -1361
8721 -63 -1370
8693 -61 -1383
8651 -60 -1393
8609 -58 -1402
8579 -57 -1414
8549 -55 -1425
8507 -54 -1434
8475 -52 -1445
8440 -50 -1454
8409 -48 -1465
8386 -47 -1477
8339 -45 -1483
8309 -43 -1494
8264 -41 -1501
8247 -40 -1513
8097 -37 -1501
7877 -34 -1474
7622 -31 -1440
7344 -29 -1401
7249 -27 -1396
7214 -25 -1402
7201 -23 -1413
7211 -21 -1427
7199 -19 -1438
7165 -17 -1444
7087 -15 -1441
6963 -13 -1427
6900 -11 -1426
6859 -9 -1430
6859 -7 -1442
6851 -5 -1452
6864 -4 -1466
6866 -1 -1478
6871 0 -1491
6881 2 -1505
6877 4 -1515
6847 6 -1520
6825 8 -1527
6822 10 -1537
6816 12 -1547
6828 15 -1561
6837 17 -1574
6830 19 -1584
6838 21 -1596
6846 24 -1609
6844 26 -1619
6846 29 -1631
6842 31 -1640
6860 33 -1655
6864 36 -1667
6862 38 -1677
6860 41 -1687
6865 43 -1699
6861 46 -1708
6870 49 -1721
6869 51 -1730
6874 54 -1742
6883 56 -1754
6886 59 -1765
6887 62 -1775
6893 65 -1787
6896 67 -1797
6900 70 -1808
6896 73 -1816
6897 76 -1826
6906 79 -1838
6898 81 -1846
6908 84 -1858
6917 87 -1869
6916 90 -1878
6918 93 -1888
6921 96 -1898
6921 99 -1907
6917 102 -1915
6918 105 -1924
6897 107 -1926
6872 110 -1928
6839 112 -1928
6838 115 -1936
6832 118 -1942
6820 121 -1947
6797 124 -1948
6775 126 -1950
6747 129 -1950
6753 132 -1960
6730 134 -1961
6711 137 -1963
6701 140 -1967
6699 143 -1974
6705 146 -1983
6680 148 -1983
6660 151 -1985
6661 154 -1992
6641 157 -1993
6625 159 -1995
6609 162 -1997
6606 165 -2003
6588 168 -2004
6591 171 -2010.9999
6563 173 -2009.0001
6544 175 -2010
6529 178 -2010.9999
6543 182 -2022.0001
6537 184 -2026
6517 187 -2026
6513 190 -2030
6524 193 -2039
6505 195 -2039
6489 198 -2039
6499 201 -2048
6470 204 -2043.9999
6454 206 -2043.9999
6460 209 -2052
6466 212 -2059
6455 215 -2060
6443 218 -2061
6445 221 -2066
6421 223 -2064
6416 226 -2066
6393 228 -2063
6405 231 -2072
6392 234 -2072
6389 237 -2075
6380 239 -2076
6366 242 -2076
6370 245 -2081
6352 247 -2079
6358 250 -2085
6360 252.99998 -2089
6345 256 -2088
6331 258 -2087
6331 261 -2090
6328 264 -2093
6335 267 -2098
6325 269 -2098
6322 272 -2100
6322 275 -2103
6325 278 -2107
6307 280 -2103
6297 282 -2103
6295 285 -2105
6304 289 -2110
6296 291 -2110
6293 294 -2111
6281 296 -2109
6280 299 -2111
6284 301 -2115
6271 304 -2112
6253 306 -2108
6259 309 -2112
6257 311 -2113
6264 314 -2117
6261 317 -2117
6261 320 -2119
6260 322 -2120
6266 325 -2123
6250 327 -2119
6256 330 -2122
6238 332 -2116
6239 334 -2118
6254 338 -2124
6245 340 -2121
6250 343 -2123
6238 345 -2120
6237 347 -2120
6248 350 -2124
6242 352 -2122
6248 355 -2124
6245 358 -2124
6242 360 -2122
6247 363 -2124
6242 365 -2122
6241 367 -2121
6250 370 -2124
6254 373 -2125
6259 376 -2126
6239 377 -2118
6248 380 -2121
6246 382 -2119
6247 384 -2118
6245 387 -2117
6247 389 -2116
6236 391 -2111
6239 393 -2111
6239 395 -2110
6233 397 -2106
6230 399 -2104
6222 401 -2099
6230 404 -2100
6224 405 -2096
6221 407 -2093
6225 410 -2093
6226 412 -2091
6222 413 -2088
6216 415 -2083
6225 418 -2084
6217 419 -2079
6219 421 -2077
6225 424 -2076
6221 425 -2072
6216 427 -2068
6219 429 -2066
6203 430 -2058
6217 433 -2059
6214 434 -2055
6218 436 -2053
6214 438 -2048
6215 440 -2045.0001
6214 442 -2042
6208 443 -2036
6208 445 -2032.0001
6208 446 -2029
6214 448 -2027
6213 450 -2023
6211 451 -2017.9999
6207 453 -2013
6200 454 -2006
6210 456 -2005.0001
6208 457 -2000
6208 459 -1996
6201 460 -1989
6214 462 -1989
6208 463 -1982
6204 464 -1976
6214 466 -1975
6216 468 -1970
6221 469 -1967
6218 470 -1961
6210 471 -1953
6213 472 -1949
6219 474 -1946
6210 475 -1937
6219 476 -1935
6217 477 -1929
6207 478 -1920
6224 480 -1920
6215 480 -1911
6216 481 -1905
6216 482 -1899
6213 483 -1893
6219 484 -1888
6218 485 -1882
6224 487 -1878
6221 487 -1870
6227 488 -1866
6222 489 -1858
6225 490 -1852
6231 491 -1847
6226 491 -1839
6230 492 -1834
6233 493 -1828
6240 494 -1823
6235 494 -1814
6243 496 -1810
6237 495 -1801
6243 496 -1795
6249 497 -1790
6246 497 -1782
6244 498 -1774
6243 498 -1766
6250 499 -1760
6245 499 -1751
6259 500 -1748
6253 500 -1738
6257 500 -1732
6262 501 -1725
6259 501 -1716
6267 501 -1710
6272 501.99997 -1704
6261 501 -1693
6274 501.99997 -1688
6267 501 -1678
6282 503.00003 -1673
6287 503.00003 -1666
6277 501.99997 -1655
6290 503.00003 -1650
6313 504 -1647
6320 505 -1640
6350 507.00003 -1639
6357 507.00003 -1632
6380 508.00003 -1629
6395 509 -1623
6410 510 -1618
6433 510.99997 -1615
6457 512 -1611
6476 513 -1607
6494 514 -1602
6497 514 -1593
6525 515 -1590
6561 517 -1589
6583 518 -1584
6608 519 -1580
6636 521 -1577
6637 520 -1567
6649 520 -1560
6632 517 -1545
6635 517 -1535
6626 515 -1523
6622 513 -1512
6626 513 -1502
6624 510.99997 -1491
6628 510 -1481
6609 507.00003 -1466
6622 507.00003 -1459
6626 505.99997 -1449
6644 505.99997 -1442
6675 507.00003 -1438
6713 508.00003 -1435
6741 508.00003 -1430
6755 508.00003 -1422
6750 505.99997 -1410
6754 505 -1399
6752 503.00003 -1387
6743 500 -1374
6741 498 -1362
6732 496 -1349
6722 493 -1336
6727 491 -1325
6729 489 -1314
6723 487 -1301
6719 484 -1289
6719 482 -1277
6711 479 -1264
6736 479 -1257
6752 478 -1248
6756 476 -1237
6761 474 -1226
6775 472 -1216
6807 472 -1210
6829 471 -1202
6864 471 -1196
6874 469 -1185
6923 469 -1181
6951 468 -1173
6961 466 -1163
6963 463 -1150
6966 460 -1138
6953 457 -1123
6945 453 -1109
6946 450 -1097
6942 447 -1084
6931 443 -1069
6942 440 -1058
6927 436 -1043
6936 433 -1031
6932 429 -1018
6919 425 -1003
6919 421 -990
6916 418 -977
6961 417 -970
6976 414 -959
6923 407 -939
9228 538 -1234
9256 534 -1220
9299 531 -1208
9343 529 -1196
6984 391 -881
7016 389 -872
6953 381 -851
6909 375 -833
6902 370 -818
6895 366 -804
6893 361 -791
6885 357 -777
6896 353 -765
6891 348 -751
6883 343 -738
6886 339 -725
6872 334 -710
6895 330 -699
10010 473 -996
10063 469 -982
10096 463 -966
10124 457 -948
10170 452 -933
6780 297 -609
6784 292 -596
6779 287 -583
6830 284 -574
6775 277 -556
6792 272 -544
6809 268 -533
6829 263 -521
6873 260 -510.99997
6910 256 -501
6941 250.99998 -489
10509 373 -721
10509 364 -701
10508 356 -680
10506 347 -660
10494 338 -639
10487 329 -619
10478 320 -598
10471 311 -577
10466 302 -557
10464 293 -537
10460 284 -516
10456 275 -496
10443 266 -476
10443 257 -456
10453 247 -436
10430 237 -414
10424 228 -394
10424 218 -374
10422 209 -354
10409 199 -334
10407 189 -314
10406 179 -294
10391 170 -274
10389 160 -254.00002
10382 150 -234
10380 140 -214
10375 129 -195
10373 119 -175
10365 109 -155
10365 99 -135
10369 89 -116
10462 79 -97
10742 70 -80
10920 60 -60
11048 50 -40
11104 39 -20
11192 27 0
11273 16 21
11340 5 42
11414 -6 63
11496 -19 86
11575 -31 108
11637 -44 130
11728 -57 152
11794 -70 175
11806 -82 197
11793 -95 218
11799 -109 240
11784 -121 261
11782 -134 283
11788 -148 305
11806 -161 327
11838 -175 349
11878 -189 372
14501 -247 480
14528 -265 508.00003
14510 -281 533
14471 -297 558
14456 -313 583
14422 -329 607
14406 -346 632
14388 -362 656
14408 -379 683
14401 -396 708
14404 -413 733
14431 -431 760
14474 -450 788
14524 -469 815
14531 -487 841
14525 -504 866
14542 -522 891
14593 -541 920
14613 -560 946
14589 -577 969
14594 -595 994
14600 -613 1020
14659 -634 1049
14741 -656 1080
14887 -681 1115
15187 -714 1163
15337 -740 1200
15325 -759 1225
15401 -782 1256
15445 -804 1285
15491 -826 1314
15585 -851 1348
15723 -878 1385
18527 -1058 1662
18674 -1091 1706
18699 -1116 1738
18687 -1139 1767
18710 -1165 1799
18731 -1190 1830
18723 -1214 1859
18729 -1238 1889
18741 -1263 1920
18731 -1287 1948
18755 -1313 1979
18749 -1337 2007
18753 -1362 2037
18769 -1387 2067
18733 -1409 2091
18760 -1436 2122
18744 -1459 2149
18767 -1486 2179
18779 -1511 2209
18764 -1535 2235
18778 -1561 2265
18811 -1588 2296
18784 -1611 2320
18833 -1640 2354
18825 -1665 2380
18839 -1691 2409
15583 -1420 2015.0001
15598 -1442 2039
15607 -1463 2062
15644 -1487 2089
15655 -1509 2112
15679 -1533 2137
16063.999 -1591 2212
15992 -1606 2224
15915 -1619 2235
15949 -1644 2261
15930 -1664 2280
15939 -1686 2303
15882 -1701 2315
15886 -1722 2337
15915 -1747 2362
15961 -1773 2390
15872 -1784 2397
23042 -2621 3510
23164 -2667 3559
23290 -2712 3607
24017 -2829 3750
24702 -2942 3887
24714 -2976 3920
24699 -3007 3949
24699 -3040 3979
24703 -3074 4010.0002
24725 -3109 4043.0002
24686 -3137 4067
24706 -3173 4099
28450 -3690 4754
28396 -3720 4777
28541 -3777 4835
28436 -3801 4850
28320 -3822 4862
28124 -3832 4860
28050 -3858 4879
27971 -3883 4896
27938 -3916 4922
27937 -3952 4952
28012 -3998 4995
29140 -4197 5228
29135 -4235 5258
29197 -4281 5300
29305 -4335 5351
29629 -4421 5441
29826 -4489 5508
30032 -4558 5577
30024 -4595 5606
30032 -4635 5637
0 0 0
0 0 0
0 0 0
0 0 0
0 0 0
0 0 0
0 0 0
0 0 0
29122 -4825 5716
29092 -4856 5738
0 0 0
0 0 0
28240 -4817 5644
28150 -4836 5650
28021 -4848 5649
27926 -4865 5653
27847 -4885 5660
0 0 0
0 0 0
0 0 0
31383 -5655 6481
31286 -5675 6486
31140 -5685 6480
31095 -5713 6494
31002 -5732 6497
30905 -5750 6501
30905 -5785 6522
30893 -5818 6543
30889 -5853 6563
30872 -5885 6581
30857 -5916 6600
30851 -5949 6620
30877 -5989 6646
30859 -6019 6662
30846 -6051 6680
30863 -6088 6703
30847 -6118 6720
30872 -6157 6744
27800 -5574 6090
27813 -5607 6110
27759 -5626 6114
27691 -5641 6115
27546 -5640 6099
27443 -5648 6092
27343 -5656 6084
27040 -5622 6032
27115 -5665 6063
27142 -5699 6083
27264 -5752 6124
27268 -5780 6139
27355 -5825 6171
27378 -5857 6190
27432 -5895 6215
27599 -5958 6265
27346 -5930 6220
27396 -5968 6243
27267 -5965 6225
27273 -5992 6238
27222 -6006 6238
27233 -6033 6251
27277 -6068 6272
27245 -6085 6274
27267 -6115 6288
27234 -6132 6291
27245 -6159 6303
27266 -6188 6317
27254 -6209 6323
27220 -6224 6323
27246 -6253 6337
27314 -6292 6361
27212 -6291 6345
27344 -6343 6383
30221 -7036 7063
30025 -7014 7024
30185 -7076 7069
30160 -7094 7070
30134 -7112 7070
30124 -7132 7074
30116 -7153 7078
30146 -7182 7091
29202 -6979 6874
28912 -6931 6811
28899 -6948 6812
28933 -6978 6824
49103 -11877 11588
49127 -11917 11600
49161 -11958 11614
49164 -11992 11619
49174 -12027 11626
49161 -12056 11627
49194 -12095 11639
49184 -12124 11639
49204 -12160 11646
49198 -12190 11647
0 0 0
0 0 0
0 0 0
0 0 0
28946 -7257 6854
28960 -7277 6856
28906 -7278 6843
28919 -7298 6845
28898 -7307 6839
28864 -7314 6829
28919 -7342 6840
0 0 0
0 0 0
0 0 0
0 0 0
46242 -11849 10914
46208 -11861 10900
46174 -11873 10884
0 0 0
0 0 0
0 0 0
46136 -11936 10846
0 0 0
0 0 0
0 0 0
0 0 0
0 0 0
0 0 0
0 0 0
45540 -11905 10623
0 0 0
0 0 0
28911 -7582 6719
28967 -7604 6724
28902 -7594 6700
28929 -7608 6697
28917 -7611 6685
28912 -7616 6674
28928 -7625 6668
0 0 0
28687 -7573 6591
0 0 0
0 0 0
0 0 0
0 0 0
28619 -7576 6519
28723 -7606 6531
28710 -7605 6515
28720 -7611 6505
28686 -7603 6485
0 0 0
0 0 0
0 0 0
0 0 0
0 0 0
0 0 0
0 0 0
0 0 0
0 0 0
0 0 0
28664 -7599 6321
28746 -7619 6323
28771 -7623 6312
28674 -7595 6275
28685 -7595 6261
28738 -7606 6255
28770 -7611 6245
28797 -7614 6233
28796 -7610 6216
28778 -7600 6194
28750 -7588 6171
28800 -7596 6163
28864 -7608 6157
28832 -7594 6132
0 0 0
0 0 0
29007 -7620 6111
0 0 0
29038 -7613 6077
29015 -7599 6051
29091 -7611 6047
28999 -7578 6007
28585 -7461 5901
28279 -7373 5816
28197 -7342 5779
28208 -7335 5760
28017 -7275 5701
28024 -7268 5680
27792 -7197 5611
27148 -7019 5460
26657 -6882 5341
26536 -6839 5295
26456 -6808 5258
26423 -6788 5230
26406 -6772 5205
26407 -6760 5184
26421 -6751 5165
26409 -6735 5140
26414 -6724 5120
26419 -6711 5098
26422 -6699 5076
26419 -6684 5053
26438 -6675 5034
26435 -6659 5010
26454 -6649 4991
26465 -6637 4969
26477 -6624 4948
26516 -6618 4931
26519 -6603 4906
26549 -6594 4889
26555 -6578 4866
26579 -6567 4845
26590 -6553 4823
26598 -6538 4799
26591 -6517 4773
26561 -6492 4743
26556 -6472 4716
26541 -6450 4688
26520 -6426 4659
26523 -6407 4634
26535 -6390 4611
26529 -6370 4584
26529 -6350 4558
26551 -6334 4536
26467 -6294 4495
24845 -5888 4195
24859 -5871 4172
25201 -5932 4204
24916 -5844 4132
24866 -5812 4098
24874 -5792 4074
24862 -5768 4047
24862 -5746 4021.9998
24854 -5723 3995
24821 -5693 3963
24723 -5648 3922
24402 -5552 3846
24185 -5480 3786
23890 -5391 3715
23773 -5343 3672
23626 -5287 3624
23476 -5231 3576
23446 -5201 3546
21863 -4829 3283
21764 -4784 3245
21744 -4758 3219
21735 -4734 3194
21741 -4713 3172
21761 -4695 3151
21810 -4682 3134
19485 -4162 2779
19467 -4138 2754
19552 -4135 2746
19540 -4111 2722
19517 -4084 2697
19507 -4060.9998 2674
19521 -4041.9998 2655
19528 -4021 2634
19571 -4008 2618
19571 -3985 2596
19560 -3960 2573
19398 -3905 2530
18697 -3741 2417
18315 -3643 2347
18234 -3604 2317
18205 -3577 2293
18197 -3553 2272
18206 -3532 2252
18202 -3510 2231
18181 -3482 2208
18181 -3460 2187
18192 -3438 2168
18194 -3416 2148
18210 -3395 2129
18216 -3373 2108
18270 -3359 2094
18258 -3333 2072
18276 -3312 2053
18272 -3286 2032.0001
18275 -3262 2010.9999
18289 -3240 1992
18290 -3215 1971
18315 -3195 1953
18295 -3166 1930
18260 -3134 1905
18301 -3116 1889
18289 -3088 1867
18309 -3065 1848
18310 -3040 1827
18309 -3013 1806
18328 -2990 1787
18327 -2963 1766
18374 -2944 1750
18380 -2918 1730
18445 -2901 1715
18421 -2870 1691
18390 -2838 1668
18347 -2803 1643
18189 -2751 1608
18060 -2704 1576
17923 -2656 1544
17881 -2623 1520
17772 -2579 1491
17664 -2536 1462
17564 -2494 1434
17478 -2455 1407
17441 -2422 1385
17335 -2380 1357
17192 -2333 1327
17153 -2301 1305
17018 -2255 1275
16985 -2223 1254
16291 -2106 1185
16162.001 -2063 1158
16129 -2032.0001 1137
15844 -1971 1100
15788 -1937 1079
15767 -1909 1060
15738 -1879 1041
15721 -1850 1021.9999
15682 -1819 1003
15632 -1787 983
15639 -1761 966
15588 -1730 947
15516 -1695 925
15505 -1667 908
15506 -1641 892
15436 -1607 871
15447 -1581 856
15393 -1549 836
15368 -1520 819
15320 -1488 800
15327 -1461 784
15293 -1431 766
15261 -1400 749
15226 -1370 731
15198 -1340 714
15166 -1310 697
15138 -1281 680
15102 -1250 663
15065 -1220 646
15007 -1188 629
14967 -1157 612
14863 -1122 592
14801 -1090 575
14784 -1061 560
14692 -1027 542
14623 -995 525
14568 -964 508.00003
11942 -768 405
11963 -747 394
11885 -720 380
11823 -694 367
11844 -673 356
11830 -650 344
11818 -627 333
11813 -605 322
11803 -581 310
11800 -559 299
11808 -536 288
11805 -513 277
11809 -491 267
11814 -469 256
11811 -446 246
11814 -423 235
11820 -400 225
11812 -377 214
11816 -354 204
11811 -331 193
11794 -308 183
11763 -283 172
11715 -259 161
11647 -235 151
11628 -212 141
11617 -189 131
11581 -166 121
11557 -142 111
11526 -119 101
11486 -96 92
11439 -73 82
11406 -50 73
11385 -28 63
11348 -4 54
11317 17 45
11292 40 36
11274 63 27
11244 84 19
11221 107 10
11197 129 2
11161 151 -5
11138 173 -13
11106 195 -21
11085 217 -29
11069 239 -37
10983 259 -45
10957 281 -52
10909 302 -60
10814 321 -67
10760 341 -73
10697 361 -80
10640 380 -87
10577 399 -93
10495 417 -99
10413 435 -105
10367 454 -111
10362 475 -118
10358 496 -124
10350 516 -131
10344 537 -137
10339 558 -143
10339 579 -149
10345 600 -155
10339 621 -161
10338 642 -167
10334 663 -173
10342 684 -179
10346 706 -185
10335 726 -190
10333 747 -196
10336 768 -202
10333 789 -207
10335 810 -212
10350 832 -218
10363 854 -223
10377 876 -229
10395 899 -234
10412 921 -240
10428 944 -245
10442 966 -250
10459 989 -256
10478 1011.9999 -261
10494 1035 -266
10510 1057 -271
10532 1081 -276
10536 1102 -281
10560 1126 -286
10564 1148 -290
10592 1172 -295
10603 1194 -300
10619 1217 -304
10629 1239 -309
10653 1264 -313
10662 1286 -318
10695 1312 -323
10702 1334 -327
10704 1355 -330
10741 1381 -335
10748 1404 -339
10769 1427 -343
10773 1449 -347
10794 1473 -351
10804 1496 -354
10833 1521 -359
10839 1543 -362
10858 1568 -366
10879 1592 -370
10895 1616 -373
10909 1639 -376
10925 1662 -380
10947 1686 -383
10958 1709 -386
10968 1732 -389
10995 1758 -393
11005 1781 -396
11014 1803 -398
11041 1829 -402
11049 1851 -404
11068 1875 -407
11077 1898 -409
11097 1922 -412
11121 1947 -415
11159 1975 -418
11143 1993 -420
11162 2017 -422
11181 2040.9999 -425
11197 2065 -427
11201 2086 -429
11217 2110 -431
11234 2134 -433
11257 2159 -435
11263 2180 -437
11280 2204 -438
11290 2227 -440
11326 2254 -442
11335 2276 -444
11354 2301 -445
11370 2324 -447
11374 2345 -448
11375 2365 -449
11398 2390 -450
11426 2416 -452
11432 2437 -453
11456 2462 -454
11463 2483 -455
11481 2507 -456
11492 2530 -456
11501 2551 -457
11508 2572 -457
11540 2598 -459
11537 2617 -458
11562 2642 -460
11576 2665 -460
11587 2687 -460
11606 2710 -461
11620 2732 -461
11625 2752 -461
11648 2777 -461
11658 2798 -461
11678 2822 -461
11671 2839 -461
11699 2864 -461
11719 2888 -461
11733 2909 -461
11742 2930 -460
11725 2944 -458
11749 2968 -459
11730 2981 -457
11775 3010 -457
11754 3023 -455
11761 3042 -454
11815 3074 -455
11830 3095 -454
11840 3116 -453
11846 3135 -452
11843 3151 -450
11848 3169 -449
11856 3188 -448
11859 3206 -446
11856 3222 -444
11860 3240 -443
11882 3263 -441
11904 3285 -441
11917 3305 -439
11904 3318 -436
11899 3332 -434
11911 3352 -432
11911 3368 -431
11910 3383 -428
11924 3402 -426
11937 3422 -424
11937 3437 -422
11955 3458 -421
11940 3468 -418
11923 3478 -414
11956 3502 -413
11977 3523 -411
11986 3540 -409
11975 3551 -406
11982 3568 -403
11986 3583 -401
12034 3611 -400
12024 3622 -396
12020 3635 -393
12052 3658 -392
12044 3669 -388
12055 3686 -386
12085 3708 -384
12064 3715 -379
12072 3730 -377
12062 3740 -373
12089 3760 -371
12121 3783 -368
12132 3799 -366
12139 3813 -362
12140 3826 -359
12166 3846 -356
12180 3861 -353
12198 3879 -351
12181 3885 -346
12215 3907 -344
12227 3922 -340
12222 3932 -336
12247 3951 -333
12283 3973 -331
12280 3983 -327
12276 3992 -323
12295 4008 -319
12293 4018.0002 -315
12299 4030.0002 -312
12314 4044.0002 -308
12316 4054.9998 -304
12342 4073 -301
12344 4083.0002 -297
12344 4092 -293
12362 4107 -289
12354 4113 -285
12366 4126 -281
12372 4136 -277
12391 4151 -273
12400 4162 -269
12405 4172 -265
12407 4181 -261
12431 4196 -257
12434 4205 -252.99998
12450 4218 -249
12450 4225 -244
12460 4235 -240
12460 4242 -235
12476 4254 -231
12473 4259 -227
12486 4270 -222
12494 4279 -218
12498 4286 -213
12494 4291 -209
12502 4299 -204
12517 4309 -200
12494 4307 -195
12489 4310 -190
12498 4318 -186
12488 4319 -181
12516 4333 -177
12521 4339 -172
12522 4344 -168
12544 4355 -163
12521 4351 -158
12538 4361 -153
12528 4361 -148
12534 4366 -144
12542 4372 -139
12554 4379 -134
12549 4380 -130
12551 4383 -125
12549 4384 -120
12554 4388 -115
12546 4387 -110
12549 4390 -105
12565 4397 -101
12557 4396 -95
12569 4401 -91
12565 4401 -86
12545 4395 -81
12544 4395 -76
12541 4395 -71
12537 4393 -66
12562 4402 -61
12558 4401 -56
12538 4394 -51
12539 4393 -46
12534 4391 -41
12541 4393 -36
12517 4383 -31
12544 4392 -27
12536 4387 -22
12522 4381 -17
12517 4378 -12
12518 4376 -7
12521 4375 -2
12523 4373 2
12513 4367 7
12510 4364 12
12505 4359 17
12495 4353 21
12482 4345 26
12489 4344 31
12474 4335 36
12478 4333 41
12474 4328 46
12461 4319 51
12464 4316 56
12454 4308 60
12451 4302 65
12454 4299 70
12435 4287 75
12432 4281 79
12410 4268 84
12426 4268 89
12423 4261 94
12402 4248 98
12414 4246 103
12394 4233 108
12385 4223 112
12376 4214 117
12388 4211 122
12369 4198 126
12346 4183 130
12352 4178 135
12339 4166 140
12329 4156 144
12327 4147 149
12318 4136 153
12303 4123 157
12304 4115 162
12284 4100 166
12278 4090.0002 170
12268 4078 175
12271 4070.0002 179
12240 4051 183
12246 4043.0002 188
12239 4032 192
12221 4015.9998 196
12225 4008 200
12206 3992 204
12190 3977 208
12186 3966 212
12159 3947 216
12169 3939 220
12147 3922 224
12140 3909 228
12143 3899 232
12133 3885 236
12125 3871 240
12110 3855 244
12099 3840 247
12087 3825 250.99998
12077 3810 254.00002
12064 3794 258
12055 3779 262
12039 3761 265
12035 3748 269
12031 3734 273
12015 3717 276
11999 3699 279
11987 3682 282
11977 3666 286
11950 3645 289
11948 3631 292
11951 3618 296
11932 3599 299
11931 3585 302
11912 3566 305
11918 3553 309
11917 3539 312
11897 3519 314
11926 3513 318
11923 3498 322
11951 3491 325
11960 3479 329
12016 3480 333
12043 3473 337
12071 3466 341
12047 3444 344
12228 3479 351
12282 3479 356
12299 3467 360
12359 3467 364
12461 3479 370
12547 3486 375
12573 3476 379
12585 3462 382
12605 3450 385
12627 3439 389
12641 3425 392
12650 3410 395
12656 3392 397
12653 3374 400
12667 3359 403
12662 3340 405
12680 3326 408
12691 3310 410
12711 3296 413
12704 3275 415
12723 3261 418
12710 3238 420
12720 3221 422
12727 3203 424
12755 3190 427
12733 3165 428
12726 3144 430
12728 3124 431
12751 3110 434
12741 3087 435
12737 3066 437
12753 3049 438
12760 3030 440
12789 3016 442
12795 2997 444
12804 2978 445
12790 2953 446
12805 2935 448
12794 2911 449
12819 2895 450
12825 2875 451
12828 2854 452
12842 2835 454
12855 2816 455
12851 2793 455
12859 2773 456
12857 2750 457
12852 2727 457
12843 2702 457
12835 2678 457
12840 2656 457
12823 2630 457
12815 2606 457
12823 2584 457
12819 2561 457
12815 2537 457
12814 2513 457
12809 2489 456
12816 2467 456
12812 2443 455
12816 2421 455
12813 2397 455
12794 2370 453
12793 2346 452
12787 2321 451
12791 2298 451
12800 2276 450
12780 2248 448
12768 2222 447
12765 2198 445
12748 2170 443
12730 2143 442
12719 2117 440
12680 2086 437
12695 2064 436
12662 2033.9999 433
12650 2007.9999 431
12641 1982 429
12636 1957 427
12609 1928 424
12595 1902 421
12585 1876 419
12567 1850 416
12539 1821 413
12539 1796 411
12515 1768 407
12507 1743 405
12498 1716 402
12481 1689 399
12465 1662 395
12439 1634 391
12429 1608 388
12418 1582 385
12396 1554 381
12381 1528 377
12360 1500 374
12347 1474 370
12339 1449 366
12327 1422 362
12311 1396 358
12294 1369 354
12258 1340 350
12243 1313 345
12248 1289 342
12219 1262 337
12206 1236 332
12198 1210 328
12191 1185 324
12164 1158 319
12144 1131 314
12139 1106 309
12130 1081 305
12099 1053 299
12094 1028 295
12072 1001.0001 289
12058 976 284
12049 950 279
12045 925 274
12017 898 268
12003 872 263
11978 846 257
11959 820 250.99998
11952 795 246
11939 770 240
11927 744 234
11928 720 229
11899 693 222
11887 668 216
11859 642 210
11846 617 204
11826 591 198
11812 567 191
11809 542 185
11792 517 179
11774 492 172
11762 467 166
11753 443 159
11730 418 152
11674 393 145
11677 369 139
11627 343 131
11610 319 125
11580 295 117
11566 271 110
11562 247 103
11522 222 96
11483 198 89
11455 174 81
11444 150 74
11404 126 66
11366 103 59
11352 80 52
11330 56 44
11284 34 37
11280 11 29
11253 -12 21
11221 -35 13
11195 -57 6
11164 -79 -1
11140 -101 -9
11122 -123 -16
11075 -145 -24
10971 -166 -32
10954 -188 -40
10882 -208 -47
10799 -228 -55
10725 -248 -63
10629 -267 -70
10493 -285 -77
10441 -304 -85
10405 -323 -92
10409 -345 -101
10404 -365 -109
10402 -385 -117
10399 -406 -125
10403 -426 -133
10409 -447 -142
10411 -468 -150
10424 -488 -159
10416 -508.00003 -167
10415 -528 -176
10427 -549 -184
10424 -569 -193
10421 -589 -202
10414 -608 -210
10409 -628 -219
10391 -647 -228
10373 -666 -236
10371 -685 -245
10368 -705 -254.00002
10356 -724 -263
10342 -743 -272
10328 -761 -281
10323 -780 -290
10329 -800 -299
10305 -817 -308
10294 -836 -317
10290 -855 -326
10283 -873 -335
10268 -891 -344
10265 -909 -353
10253 -927 -362
10245 -945 -372
10251 -964 -381
10234 -981 -391
10234 -1000 -400
10240 -1019.0001 -410
10244 -1039 -420
10258 -1058 -431
10261 -1077 -441
10265 -1096 -451
10259 -1113 -461
10272 -1133 -471
10285 -1153 -482
10276 -1170 -492
10274 -1187 -501.99997
10293 -1207 -513
10293 -1225 -523
10295 -1243 -533
10304 -1262 -544
10296 -1279 -554
10320 -1299 -566
10314 -1316 -576
10322 -1335 -587
10333 -1354 -598
10321 -1370 -608
10340 -1390 -619
10335 -1407 -630
10343 -1425 -641
10343 -1442 -652
7014 -989 -449
6993 -998 -455
6979 -1007 -461
6923 -1010 -465
6909 -1019.0001 -471
6906 -1030 -478
6888 -1038 -484
6873 -1047 -490
6877 -1058 -497
6853 -1066 -503.00003
6839 -1074 -509
6835 -1084 -516
6852 -1097 -525
6844 -1107 -531
6839 -1116 -538
6851 -1129 -546
6861 -1141 -554
6825 -1145 -558
6864 -1162 -569
6897 -1177 -579
10261 -1767 -873
10240 -1779 -882
10218 -1790 -891
10181 -1798 -898
10159 -1809 -907
10124 -1817 -915
10093 -1826 -923
10060 -1834 -931
10041 -1845 -939
10006 -1852 -947
9995 -1864 -957
9947 -1869 -963
9944 -1882 -973
9903 -1887 -979
9880 -1896 -988
9858 -1906 -996
9833 -1914 -1003.9999
9807 -1922 -1011.9999
9770 -1927 -1019.0001
9756 -1937 -1028
9723 -1943 -1035
9697 -1951 -1042
9662 -1956 -1049
9645 -1965 -1057
9607 -1969 -1063
9577 -1974 -1070
9550 -1980 -1077
9510 -1984 -1082
9513 -1996 -1093
9488 -2002.0001 -1100
9474 -2010 -1108
9441 -2015.0001 -1114
9437 -2025.0001 -1124
9411 -2030 -1130
9381 -2035.0001 -1136
9355 -2040 -1143
9342 -2046.9999 -1151
9317 -2052 -1158
9290 -2057 -1164
9262 -2061 -1170
9259 -2070 -1179
9216 -2070 -1183
9197 -2076 -1191
9183 -2083 -1198
9163 -2088 -1205
9133 -2091 -1210
9110 -2094 -1216
9089 -2099 -1223
9076 -2105 -1230
9044 -2107 -1235
9003 -2106 -1238
8985 -2110 -1245
8973 -2116 -1252
8968 -2123 -1260
8971 -2133 -1270
8956 -2137 -1277
8944 -2143 -1284
8896 -2139 -1285
8868 -2140 -1290
8836 -2140 -1294
8819 -2144 -1300
8809 -2149 -1307
8794 -2153 -1313
8769 -2154 -1318
8758 -2158 -1324
8733 -2159 -1329
8722 -2164 -1336
8702 -2166 -1341
8686 -2169 -1346
8653 -2167 -1349
8639 -2170 -1355
8624 -2173 -1360
8614 -2176 -1367
8591 -2177 -1371
8590 -2182 -1378
8548 -2178 -1380
8545 -2183 -1386
8531 -2185 -1392
8528 -2190 -1399
8489 -2186 -1400
8481 -2189 -1406
8462 -2189 -1410
8443 -2190 -1414
8437 -2193 -1421
8408 -2191 -1423
8402 -2194 -1429
8377 -2192 -1432
8359 -2192 -1436
8353 -2195 -1442
8340 -2196 -1446
8332 -2199 -1451
8299 -2194 -1452
8286 -2195 -1456
8277 -2197 -1462
8266 -2198 -1466
8243 -2195 -1469
8255 -2202 -1477
8236 -2201 -1480
8222 -2200 -1484
8204 -2199 -1487
8187.9995 -2198 -1490
8179 -2199 -1495
8161.0005 -2197 -1497
8161.0005 -2201 -1503
8137.9995 -2197 -1505
8130.9995 -2198 -1510
8119.0005 -2197 -1513
8121.0005 -2201 -1519
8095.0005 -2196 -1520
8088.9995 -2197 -1524
8079.0005 -2196 -1528
8069 -2196 -1531
8045.9995 -2192 -1532
8031.9995 -2190 -1535
8023 -2189 -1538
8014 -2189 -1542
8005 -2188 -1545
7981 -2183 -1546
7970 -2182 -1549
7960 -2180 -1551
7934 -2175 -1551
7940 -2178 -1557
7930 -2176 -1560
7939 -2179 -1566
7937 -2180 -1570
7929 -2179 -1573
7918 -2176 -1575
7923 -2178 -1581
7919 -2178 -1584
7926 -2180 -1590
7913 -2177 -1591
7915 -2178 -1596
7886 -2170 -1594
7845 -2159 -1590
7874 -2167 -1599
7881 -2169 -1605
7862 -2163 -1604
7857 -2162 -1607
7841 -2157 -1608
7840 -2156 -1611
7820 -2150 -1610
7823 -2150 -1614
7823 -2149 -1618
7814 -2146 -1619
7804 -2142 -1620
7797 -2140 -1622
7787 -2136 -1623
7778 -2132 -1624
7772 -2129 -1625
7783 -2131 -1630
7763 -2124 -1629
7765 -2123 -1632
7757 -2119 -1633
7754 -2116 -1635
7747 -2113 -1636
7747 -2111 -1638
7735 -2106 -1638
7729 -2102 -1639
7728 -2099 -1641
7728 -2097 -1643
7727 -2094 -1645
7723 -2091 -1646
7726 -2089 -1649
7717 -2084 -1648
7703 -2078 -1647
7698 -2074 -1648
7694 -2070 -1649
7705 -2070 -1652
7702 -2066 -1653
7685 -2058 -1651
7708 -2061 -1657
7683 -2051 -1653
7684 -2048 -1654
7677 -2043 -1654
7680 -2040 -1656
7686 -2038.0001 -1658
7682 -2033 -1658
7680 -2029 -1659
7671 -2023 -1657
7681 -2022.0001 -1660
7676 -2016 -1659
7669 -2010 -1658
7671 -2007 -1659
7627 -1991 -1650
7668 -1997 -1659
7660 -1991 -1658
7661 -1987 -1658
7673 -1985 -1661
7664 -1978 -1659
7661 -1972 -1658
7664 -1968 -1658
7664 -1964 -1658
7669 -1960 -1659
7671 -1955 -1659
7668 -1950 -1658
7680 -1947 -1660
7677 -1941 -1659
7688 -1939 -1660
7685 -1933 -1659
7692 -1929 -1660
7685 -1921 -1657
7687 -1916 -1657
7683 -1909 -1655
7699 -1908 -1657
7686 -1898 -1653
7655 -1885 -1645
7697 -1889 -1653
7695 -1883 -1651
7708 -1880 -1652
7701 -1872 -1649
7717 -1869 -1651
7714 -1862 -1648
7715 -1856 -1647
7688 -1843 -1639
7690 -1837 -1637
7725 -1838 -1643
7731 -1833 -1642
7740 -1828 -1642
7739 -1821 -1639
7742 -1815 -1637
7733 -1806 -1633
7760 -1805 -1636
7759 -1797 -1633
7762 -1791 -1631
7750 -1781 -1626
7782 -1781 -1630
7792 -1776 -1629
7791 -1768 -1626
7807 -1764 -1626
7804 -1755 -1622
7814 -1750 -1621
7824 -1744 -1620
7816 -1734 -1615
7839 -1732 -1616
7848 -1725 -1614
7847 -1717 -1610
7818 -1703 -1601
7837 -1699 -1601
7872 -1698 -1604
7884 -1692 -1602
7890 -1685 -1600
7896 -1677 -1597
7903 -1671 -1594
7904 -1662 -1590
7908 -1654 -1586
7910 -1646 -1582
7901 -1635 -1576
7923 -1631 -1576
7920 -1621 -1570
7950 -1618 -1571
7926 -1604 -1562
7927 -1595 -1557
7910 -1583 -1549
7982 -1588 -1558
7988 -1580 -1553
8003.0005 -1574 -1551
8010.9995 -1566 -1547
8024 -1559 -1544
8038.9995 -1552 -1542
8057 -1546 -1539
8052 -1535 -1533
8043.9995 -1524 -1526
8078 -1521 -1526
8088.0005 -1513 -1522
8099 -1505 -1518
8114.0005 -1498 -1515
8137.9995 -1492 -1513
8151 -1485 -1509
8184 -1480 -1509
8196 -1472 -1504
8212 -1465 -1501
8200 -1452 -1492
8198 -1442 -1485
8231 -1437 -1484
8254 -1430 -1481
8229 -1416 -1469
8252 -1409 -1466
8304 -1407 -1468
8317 -1398 -1463
8333 -1390 -1459
8335 -1380 -1451
8354 -1372 -1447
8362 -1362 -1440
8376 -1354 -1435
8396 -1346 -1431
8419 -1338 -1427
8436 -1330 -1421
8452 -1321 -1416
8488 -1316 -1414
8503 -1307 -1408
8538 -1301 -1405
8533 -1288 -1396
8567 -1282 -1393
8577 -1272 -1385
8605 -1265 -1381
8618 -1255 -1374
8641 -1247 -1369
8661 -1238 -1363
8681 -1229 -1357
8703 -1220 -1351
8727 -1212 -1345
8752 -1203 -1339
8776 -1194 -1333
8783 -1183 -1325
8822 -1177 -1321
8841 -1167 -1314
8866 -1158 -1307
8883 -1148 -1299
8907 -1139 -1293
8942 -1131 -1287
8958 -1121 -1279
8975 -1110 -1271
8977 -1098 -1260
9020 -1091 -1256
9052 -1082 -1249
9059 -1070 -1239
9085 -1061 -1231
9167 -1058 -1231
9151 -1043 -1217
9178 -1033 -1210
9231 -1026 -1205
9239 -1015 -1194
9273 -1005 -1187
9289 -994 -1177
9328 -985 -1170
9357 -975 -1161
9399 -967 -1154
9422 -956 -1145
9445 -945 -1135
9464 -934 -1125
9504 -925 -1117
9533 -914 -1107
9556 -903 -1097
9595 -893 -1088
9633 -884 -1079
9661 -873 -1069
9692 -862 -1059
9737 -853 -1050
9758 -841 -1039
9794 -830 -1028
9843 -821 -1020
9866 -809 -1008
9928 -800 -1000
9949 -788 -988
9967 -776 -975
10004 -765 -964
10037 -754 -953
10080 -743 -942
10111 -732 -930
10190 -724 -922
10210 -711 -908
6836 -466 -598
6812 -456 -585
6815 -446 -575
6818 -437 -565
6815 -428 -554
6814 -418 -544
6798 -409 -532
6820 -401 -523
6848 -393 -515
6854 -384 -504
6894 -377 -496
6885 -367 -485
6957 -362 -479
6965 -353 -469
10575 -523 -695
10569 -508.00003 -677
10552 -494 -659
10554 -480 -643
10544 -466 -625
10548 -452 -608
10526 -437 -589
10526 -424 -572
10533 -410 -555
10512 -396 -537
10513 -382 -519
10507 -368 -501
10492 -354 -483
10489 -341 -465
10489 -328 -448
10489 -314 -430
10467 -300 -411
10469 -287 -393
10451 -273 -375
10449 -260 -357
10448 -247 -339
10437 -234 -321
10427 -221 -302
10418 -208 -284
10413 -195 -266
10409 -182 -248
10407 -169 -229
10395 -156 -211
10396 -144 -193
10388 -131 -174
10390 -119 -156
10384 -106 -138
10377 -94 -119
10411 -82 -101
10607 -71 -84
10813 -60 -67
11021 -48 -48
11083 -36 -29
11142 -23 -9
11227 -10 10
11308 2 31
11363 15 52
11441 28 73
11517 41 95
11608 55 117
11658 68 138
11775 82 161
11795 95 183
11788 108 205
11783 120 226
11767 133 248
11765 145 269
11757 158 291
11776 171 313
11814 184 336
11927 198 361
14531 257 467
14673 275 499
14744 292 529
14873 309 562
15021 328 595
15131 346 628
15201 363 660
15276 380 692
15416 398 727
15540 417 762
15695 437 799
15800 455 834
15918 474 870
16042.999 493 908
16153 512 944
16289 531 983
16427 551 1021.9999
16537 570 1060
16669 591 1100
16802 611 1141
16968 632 1184
17035 650 1222
17233 673 1269
17360 694 1311
17618 720 1363
17693 738 1403
17653 752 1433
17678 769 1469
17665 783 1503
17678 799 1537
17669 813 1570
17659 827 1602
17658 842 1635
17645 856 1668
17645 870 1701
17657 885 1736
17667 899 1770
17669 913 1804
17656 927 1836
17650 940 1869
17659 954 1904
17665 968 1938
17658 981 1970
17653 994 2003
17667 1007 2038.0001
17683 1021 2073
17666 1033 2104
0 0 0
19468 1166 2392
19525 1183 2436
23283 1427 2949
23309 1445 2996
23277 1458 3036
23305 1476 3083
23272 1489 3122
23294 1506 3169
23277 1520 3211
23286 1536 3255
23293 1551 3300
23296 1566 3344
23320 1582 3390
23293 1594 3429
23292 1608 3472
23268 1620 3512
23243 1632 3551
23261 1647 3597
23241 1659 3637
23320 1678 3692
23408 1698 3748
23481 1715 3802
23503 1730 3848
23474 1740 3886
23452 1751 3925
23458 1763 3968
23470 1776 4012
28800 2194 4975
28765 2206 5020
28772 2221 5073
28852 2241 5139
29221 2283 5257
29558 2324 5370
29753 2353 5458
29776 2368 5515
29835 2386 5578
29872 2402 5638
29937 2421 5702
29963 2435 5759
29931 2445 5805
29818 2448 5835
29379 2424 5800
28692 2379 5713
28848 2403 5794
28812 2411 5836
28557 2400 5833
28535 2409 5877
28535 2420 5926
28513 2428 5970
44956 3844 9489
45054 3867 9585
45042 3881 9658
45023 3894 9727
45017 3907 9799
45001 3920 9869
44982 3933 9940
45007 3948 10019
45178 3976 10131
45593 4025 10298
45888 4064.0002 10438
45959 4081.9998 10528
46028 4101 10618
46112 4120 10709
46209 4140 10805
46299 4159 10899
46368 4177 10986
46384 4189 11062
46413 4202 11141
46441 4214 11220
46384 4218 11277
28195 2570 6897
28186 2575 6938
28181 2579 6979
28155 2582 7015
28218 2593 7073
47895 4410 12076
47875 4416 12142
27979 2585 7136
27958 2587 7171
27956 2591 7211
27936 2593 7246
27918 2594 7281
27908 2597 7318
27923 2601 7361
27942 2606 7405
47727 4457 12713
47684 4458 12768
47688 4463 12833
47659 4464 12890
47631 4467 12947
47616 4468 13007
47600 4470 13066
47579 4471 13123
47571 4472 13181
47550 4473 13239
47537 4473 13297
47518 4473 13352
47522 4475 13413
47506 4474 13468
47467 4472 13516
47462 4472 13573
47429 4469 13621
47423 4468 13677
47402 4466 13728
47394 4466 13783
47373 4463 13832
47365 4461 13885
47357 4459 13938
47329 4454 13984
47313 4451 14033
47295 4448 14079
47314 4447 14137
47268 4441 14175
47272 4438 14227
47247 4432 14271
47233 4427 14317
47238 4424 14368
47209 4417 14408
47196 4412 14453
47175 4405 14494
47158 4399 14536
47173 4396 14587
47142 4388 14623
47122 4380 14663
47139 4377 14713
47124 4370 14753
47079 4359 14782
47086 4353 14827
47075 4345 14866
47043 4337 14898
47046 4331 14939
47033 4320 14976
47036 4313 15017
47027 4305 15053
46997 4294 15082
47007 4288 15123
46982 4277 15152
46973 4267 15185
46962 4257 15218
46959 4248 15252
46967 4239 15291
46952 4229 15320
46931 4217 15347
46919 4207 15376
46926 4197 15410
46918 4185 15440
46921 4175 15472
46909 4163 15499
46876 4150 15518
46866 4139 15544
46881 4129 15577
46868 4116 15601
46865 4103 15628
46841 4089.0002 15646
46830 4074.9998 15669
46846 4065 15699
46837 4052 15721
46827 4038 15742
46840 4025 15770
46804 4008.9998 15781
46807 3997 15804
46818 3984 15829
46825 3971 15852
46837 3957 15877
46781 3938 15877
46787 3926 15898
46775 3911 15912
46779 3895 15931
46770 3881 15945
46769 3865 15961
46774 3852 15978
46760 3833 15988
46763 3819 16003
46766 3803 16018
46756 3787 16027
46765 3771 16042.999
46743 3754 16047.001
46754 3738 16061.001
46753 3722 16070.999
46741 3704 16077
46747 3687 16087.999
46750 3671 16097
46742 3653 16101.999
46746 3638 16110.001
46766 3620 16122.999
46748 3602 16122.999
46734 3583 16122.999
46736 3566 16128
46744 3549 16134.001
46744 3530 16136.999
46746 3512 16139.999
46734 3492 16136.999
46748 3474 16143
46740 3455 16141.001
46739 3437 16139
46758 3419 16145
46763 3400 16145
46758 3381 16139.999
46746 3361 16132.999
46744 3341 16129
46768 3323 16132
46778 3305 16129.999
46781 3285 16125
46768 3264 16115
46784 3244 16113.001
46762 3224 16097
46808 3206 16104
46789 3183 16089.001
46797 3164 16080.999
46775 3141 16063
46777 3120 16052.999
46818 3102 16055
46806 3081 16038
46806 3060 16024
46829 3040 16018
46828 3019 16003
46843 2999 15993
46822 2976 15970
46837 2955 15958
46835 2934 15940
46844 2912 15925
46846 2890 15907
46874 2871 15898
46864 2848 15874
46900 2827 15866
46871 2804 15834
46900 2783 15822
46893 2760 15797
46923 2739 15783
46914 2717 15756
46907 2693 15729
46933 2672 15713
46942 2649 15690
46945 2628 15664
46954 2605 15640
46959 2582 15613
46984 2560 15593
46988 2537 15565
47004 2516 15541
47000 2492 15509
47011 2470 15481
47035 2447 15457
47031 2423 15423
47035 2400 15391
47050 2377 15362
47072 2354 15334
47084 2331 15303
47087 2309 15268
47100 2286 15235
47110 2262 15202
47113 2240 15166
47135 2217 15135
47139 2193 15097
47171 2172 15068
47151 2147 15021
47181 2125 14991
47200 2103 14955
47199 2079 14912
47221 2056 14876
47236 2032.0001 14838
47245 2009.0001 14796
47253 1985 14754
47264 1962 14713
47294 1938 14675
47311 1915 14634
47310 1892 14587
47331 1869 14546
47349 1847 14504
47366 1823 14460
47388 1800 14417
47400 1777 14370
47405 1753 14321
47429 1730 14276
47436 1707 14227
47470 1685 14184
47472 1662 14132
47473 1638 14079
47496 1615 14031
47530 1592 13986
47554 1569 13938
47551 1546 13880
47584 1523 13833
47602 1501 13782
47608 1478 13724
47625 1455 13672
47630 1431 13614
47637 1409 13557
47682 1387 13510
47702 1365 13454
47709 1343 13394
47719 1320 13334
47741 1297 13278
47770 1275 13223
47786 1254 13165
47826 1232 13111
47831 1209 13048
47865 1187 12992
47878 1165 12929
47903 1143 12869
47906 1122 12802
28019 643 7448
28039 630 7413
28034 617 7372
28066 605 7340
28090 593 7305
28128 581 7274
28135 569 7234
28152 556 7197
45449 878 11552
45457 859 11486
45480 839 11423
45501 821 11360
45493 801 11288
45539 782 11229
45547 762 11161
45588 744 11099
45592 725 11029
45626 707 10966
45656 688 10900
45669 669 10832
45673 651 10758
45710 633 10693
45720 615 10621
45743 597 10551
45761 580 10481
45786 562 10411
45802 544 10340
45814 527 10264
45832 510 10192
28470 306 6283
28494 295 6239
28546 285 6202
45783 441 9871
44703 415 9560
44607 398 9462
44631 383 9389
0 0 0
0 0 0
0 0 0
0 0 0
0 0 0
0 0 0
0 0 0
23245 137 4563
23404 131 4551
23352 124 4498
23372 116 4460
23377 109 4419
23393 103 4379
26848 110 4975
26823 102 4922
26871 95 4880
26853 88 4828
26801 80 4767
26822 73 4721
26810 66 4668
26811 59 4618
26783 52 4562
26800 46 4514
26800 39 4463
26801 33 4412
26762 27 4354
26637 21 4283
26572 15 4220
26558 9 4166
26533 4 4111
26558 0 4063.0002
26565 -5 4012
26405 -11 3936
25678 -15 3777
20163 -15 2925
20152 -19 2884
20134 -22 2842
20147 -26 2804
20142 -29 2763
20150 -32 2724
20091 -34 2676
19477 -36 2555
18645 -37 2409
18513 -39 2355
18487 -41 2314
18472 -43 2274
18463 -45 2236
18447 -47 2196
18419 -49 2155
18379 -50 2113
18343 -52 2071
18332 -53 2032.0001
18326 -54 1995
18299 -55 1954
18298 -56 1916
18295 -57 1878
18282 -58 1838
18280 -59 1800
18292 -59 1764
18241 -60 1721
18238 -60 1683
18236 -60 1645
18224 -60 1605
18197 -60 1565
17933 -59 1504
17761 -58 1453
17550 -57 1399
17358 -56 1348
17201 -55 1299
17082 -54 1255
16946 -53 1209
14634 -45 1013
14662 -44 984
14618 -43 950
14621 -42 919
14638 -41 890
14645 -39 859
14651 -38 829
14655 -36 798
14677 -35 768
14665 -33 736
14679 -31 705
14694 -29 675
14696 -27 643
14707 -25 612
14709 -23 581
14740 -21 551
14694 -18 517
11984 -13 396
11845 -11 367
11816 -8 341
11786 -6 315
11768 -4 289
11785 -1 264
11794 0 239
11791 3 214
11801 6 189
11719 8 163
11633 11 137
11540 14 112
11451 17 87
11359 19 62
