# .PCD v0.7 - Point Cloud Data file format
VERSION 0.7
FIELDS x y z
SIZE 4 4 4
TYPE F F F
COUNT 1 1 1
WIDTH 2968
HEIGHT 1
VIEWPOINT 0 0 0 1 0 0 0
POINTS 2968
DATA ascii
20323 -515 2985
14329 -361 2077
14329 -359 2048
14254 -355 2009.0001
0 0 0
0 0 0
14391 -350 1943
14362 -347 1910
14381 -344 1884
14359 -341 1853
14345 -337 1822
14373 -335 1797
14354 -331 1765
14356 -328 1736
14345 -324 1706
14364 -321 1680
14395 -318 1654
14408 -314 1626
14368 -310 1593
14447 -308 1572
14349 -302 1532
14398 -298 1509
14365 -293 1476
14421 -290 1452
14408 -285 1421
14418 -281 1392
14426 -276 1363
14442 -272 1336
14436 -267 1306
14485 -263 1280
14462 -258 1249
14461 -252 1219
14483 -247 1190
14492 -242 1161
14536 -237 1134
14508 -231 1102
14533 -226 1074
14554 -220 1046
14584 -215 1018
14557 -209 986
14590 -203 958
14652 -197 932
14655 -191 902
14680 -185 873
14634 -178 840
14680 -172 812
14743 -166 785
14808 -159 758
14810 -152 727
14885 -146 701
14875 -139 669
14894 -131 640
14841 -123 607
14780 -115 573
14767 -108 543
14662 -99 508.00003
11910 -74 388
11862 -67 362
11801 -60 335
11776 -54 310
11779 -47 287
11783 -41 262
11782 -34 238
11784 -27 214
11799 -20 190
11744 -13 164
11628 -6 139
11595 0 115
11460 7 90
11394 14 66
11307 21 43
11234 28 20
11156 35 -2
11063 42 -24
10945 49 -47
10747 55 -68
10468 60 -88
10381 67 -108
10369 74 -128
10365 81 -149
10373 88 -171
10376 95 -192
10376 103 -213
10390 110 -234
10390 118 -255
10409 126 -277
10406 133 -297
10410 141 -318
10421 149 -340
10419 157 -360
10425 164 -381
10435 173 -402
10435 181 -423
10457 189 -444
10455 197 -465
10449 205 -485
10470 214 -507.00003
10480 222 -528
10479 231 -548
10482 239 -569
10475 248 -589
10503 257 -611
10506 266 -632
10508 274 -652
10514 283 -672
10524 292 -693
10524 301 -714
6948 205 -485
6917 210 -496
6869 214 -505
6842 219 -516
6807 224 -527
6796 229 -539
6791 235 -551
6795 241 -564
6792 247 -577
6785 252.99998 -589
6746 258 -598
10217 400 -925
10164 407 -939
10107 414 -952
10071 422 -968
10019 429 -981
9976 436 -995
9930 443 -1008
9893 451 -1023
9847 458 -1035
6918 328 -740
6899 334 -750
6891 340 -762
6883 346 -773
6891 353 -786
6887 360 -798
6903 367 -812
6928 375 -827
6915 381 -838
0 0 0
9416 537 -1173
9381 545 -1185
6922 409 -886
6931 416 -899
6898 421 -907
6888 427 -917
6896 434 -930
6902 442 -943
6904 449 -954
6905 456 -966
6908 463 -978
6920 471 -991
6920 478 -1003
6927 485 -1015
6930 493 -1027
6930 500 -1038
6925 505.99997 -1048
6930 514 -1060
6936 521 -1072
6927 528 -1082
6940 536 -1095
6944 543 -1106
6946 551 -1117
6948 558 -1129
6953 565 -1140
6953 573 -1150
6966 581 -1163
6968 588 -1174
6969 596 -1185
6956 602 -1194
6943 608 -1202
6919 613 -1207
6889 618 -1213
6871 623 -1220
6862 630 -1228
6826 633 -1231
6809 639 -1238
6778 643 -1242
6766 649 -1250
6748 654 -1256
6712 658 -1258
6713 665 -1268
6714 672 -1277
6696 677 -1283
6709 686 -1295
6699 692 -1302
6710 700 -1313
6709 707 -1322
6715 714 -1332
6722 722 -1342
6722 729 -1351
6732 737 -1362
6726 744 -1369
6725 751 -1377
6747 760 -1391
6831 777 -1416
7000 803 -1460
7039 815 -1477
7027 821 -1483
7002 825 -1486
6988 831 -1492
6978 837 -1498
6954 841 -1501
6942 847 -1507
6928 852 -1512
6899 856 -1513
6891 862 -1520
6880 867 -1525
6852 871 -1526
6847 877 -1533
6827 882 -1536
6833 890 -1545
6806 893 -1546
6796 898 -1551
6774 902 -1553
6761 907 -1557
6752 913 -1562
6729 916 -1564
6710 921 -1566
6698 926 -1570
6685 930 -1574
6694 938 -1582
6672 942 -1584
6663 947 -1588
6652 952 -1592
6639 956 -1595
6631 962 -1599
6612 965 -1600
6611 971 -1606
6603 977 -1610
6578 979 -1609
6575 985 -1614
6558 989 -1616
6547 993 -1619
6542 998 -1623
6539 1003.9999 -1628
6522 1007 -1629
6503 1010 -1629
6462 1010 -1624
6417 1008.9999 -1617
6378 1008.9999 -1612
6336 1007 -1607
6314 1010 -1606
6281 1010 -1602
6243 1010 -1597
6203 1008.9999 -1591
6186 1011.0001 -1591
6173 1015 -1592
6162 1018 -1593
6148 1021 -1593
6155 1028 -1599
6138 1030 -1599
6125 1033 -1599
6122 1038 -1602
6118 1042 -1605
6109 1045 -1606
6101 1049 -1607
6099 1054 -1610
6077 1055 -1608
6080 1060 -1612
6070 1064 -1613
6067 1068 -1615
6070 1073 -1619
6070 1078 -1621
6062 1081 -1622
6067 1087 -1626
6059 1090 -1627
6056 1094 -1629
6057 1099 -1632
6055 1103 -1634
6056 1108 -1637
6057 1112 -1639
6061 1117 -1643
6056 1121 -1644
6066 1127 -1649
6047 1128 -1645
6055 1133 -1650
6056 1138 -1652
6049 1140 -1652
6054 1146 -1655
6050 1149 -1656
6055 1154 -1659
6054 1158 -1660
6058 1162 -1663
6050 1164 -1662
6046 1168 -1662
6048 1172 -1664
6050 1176 -1666
6055 1181 -1668
6047 1183 -1667
6049 1187 -1669
6046 1190 -1669
6044 1193 -1669
6031 1194 -1666
6036 1198 -1668
6050 1204 -1673
6047 1207 -1673
6045 1210 -1672
6051 1214 -1674
6040 1215 -1672
6051 1221 -1675
6045 1223 -1674
6047 1226 -1674
6041 1228 -1673
6041 1231 -1673
6045 1234 -1674
6052 1238 -1676
6046 1240 -1674
6041 1242 -1672
6035 1243 -1670
6042 1247 -1672
6044 1250 -1671
6042 1252 -1670
6041 1255 -1669
6046 1258 -1670
6038 1259 -1667
6034 1260 -1665
6048 1266 -1668
6041 1266 -1665
6041 1268 -1664
6044 1271 -1663
6042 1273 -1662
6042 1275 -1660
6036 1276 -1657
6034 1277 -1655
6037 1279 -1655
6048 1284 -1656
6042 1284 -1653
6046 1286 -1652
6045 1288 -1650
6044 1289 -1648
6044 1291 -1646
6058 1295 -1648
6042 1293 -1641
6038 1294 -1638
6042 1296 -1637
6046 1298 -1636
6041 1298 -1632
6050 1301 -1632
6048 1302 -1629
6041 1301 -1624
6043 1303 -1622
6051 1305 -1622
6055 1307 -1620
6062 1309 -1619
6061 1310 -1616
6077 1314 -1617
6074 1314 -1613
6091 1318 -1615
6091 1319 -1612
6103 1322 -1612
6110 1323 -1610
6107 1323 -1606
6115 1325 -1605
6120 1327 -1603
6143 1332 -1605
6133 1330 -1599
6146 1332 -1598
6151 1334 -1596
6165 1337 -1596
6191 1342 -1598
6234 1351 -1605
6263 1357 -1609
6294 1364 -1613
6308 1366 -1612
6339 1373 -1615
6375 1380 -1620
6420 1389 -1627
6473 1400 -1636
6491 1403 -1635
6499 1404 -1633
6503 1404 -1629
6515 1406 -1627
6524 1407 -1624
6551 1411 -1626
6549 1410 -1620
6560 1411 -1618
6569 1412 -1615
6577 1412 -1611
6574 1410 -1605
6598 1414 -1605
6604 1414 -1601
6616 1415 -1599
6629 1416 -1596
6643 1417 -1593
6658 1419 -1591
6653 1416 -1584
6671 1418 -1582
6676 1417 -1577
6698 1420 -1576
6711 1420 -1573
6713 1419 -1567
6719 1418 -1562
6744 1420 -1562
6756 1421 -1558
6763 1420 -1553
6788 1422 -1552
6782 1419 -1544
6802 1420 -1542
6818 1421 -1539
6824 1419 -1533
6834 1418 -1529
6865 1422 -1528
6878 1421 -1524
6884 1420 -1518
6907 1421 -1516
6921 1421 -1512
6934 1420 -1507
6937 1417 -1500
6947 1416 -1495
6970 1417 -1492
6989 1417 -1489
6991 1414 -1482
7035 1419 -1483
7051 1418 -1478
7051 1415 -1471
7068 1414 -1466
7076 1411 -1460
7105 1413 -1458
7128 1413 -1454
7140 1411 -1448
7155 1410 -1443
7179 1410 -1439
7189 1408 -1433
7209 1407 -1428
7237 1408 -1425
7250 1406 -1419
7261 1403 -1413
7288 1403 -1409
7303 1401 -1403
7328 1400 -1399
7327 1395 -1390
7351 1394 -1385
7361 1391 -1378
7398 1392 -1376
7422 1391 -1371
7424 1386 -1362
7448 1385 -1357
7464 1382 -1351
7482 1380 -1344
7503 1377 -1339
7545 1379 -1336
7552 1374 -1328
7583 1374 -1324
7587 1368 -1314
7618 1367 -1310
7623 1361 -1301
7658 1361 -1297
7681 1358 -1290
7704 1356 -1284
7727 1353 -1278
7753 1350 -1272
7778 1348 -1266
7795 1344 -1258
7802 1337 -1248
7854 1339 -1246
7870 1334 -1238
7908 1333 -1234
7933 1330 -1227
7936 1322 -1217
7952 1317 -1208
7965 1312 -1199
8008.0005 1310 -1195
8041.0005 1308 -1189
8073 1305 -1182
8092 1300 -1174
8094 1292 -1163
8102 1284 -1153
8090.9995 1274 -1140
8082 1264 -1128
8071 1254 -1115
8047 1241 -1101
8045.9995 1232 -1089
8033 1222 -1077
8024.9995 1211 -1064
8022.0005 1202 -1052
8038 1195 -1043
8079.0005 1192 -1037
8101 1186 -1029
8139 1182 -1021.9999
8199 1181 -1018
8414 1202 -1033
8274 1173 -1003.9999
9528 1339 -1143
9569 1333 -1135
9607 1327 -1125
9649 1321 -1117
9684 1314 -1107
9712 1306 -1096
9746 1298 -1087
9775 1290 -1076
9802 1281 -1065
9842 1274 -1055
9875 1266 -1045
9925 1260 -1036
9967 1252 -1026
9990 1242 -1015
10013 1232 -1003
10058 1224 -993
10089 1215 -982
10121 1205 -971
10158 1196 -960
10181 1185 -948
10199 1173 -935
10244 1164 -925
10294 1156 -914
10345 1147 -904
10368 1136 -892
10418 1127 -881
10464 1117 -870
10476 1104 -857
10526 1094 -846
10559 1083 -834
10620 1074 -824
10645 1061 -811
10643 1046 -796
10639 1030 -781
10631 1013 -765
10611 996 -749
10604 979 -733
10577 962 -717
10561 945 -701
10564 929 -687
10530 910 -670
10516 893 -655
10506 877 -640
10485 859 -624
10477 842 -609
10453 824 -593
10439 807 -578
10431 790 -563
10435 775 -550
10428 757 -535
10420 740 -520
10430 725 -507.00003
10424 708 -492
10422 691 -478
10425 675 -464
10417 657 -450
10412 640 -435
10419 624 -422
10408 606 -407
10403 589 -393
10406 573 -380
10397 555 -366
10403 538 -352
10396 521 -338
10392 503.00003 -325
10385 486 -311
10385 468 -297
10383 450 -283
10383 433 -270
10379 415 -256
10368 397 -243
10374 380 -230
10360 362 -216
10359 345 -203
10362 327 -190
10366 309 -177
10359 292 -164
10351 274 -151
10362 256 -138
10376 238 -126
10376 220 -113
10424 203 -101
10610 188 -89
10756 172 -78
10874 155 -65
11012 137 -53
11057 118 -39
11104 99 -26
11114 79 -13
11192 60 0
11238 40 13
11287 20 26
11319 0 39
11360 -20 53
11420 -40 66
11461 -61 80
11506 -82 93
11561 -103 107
11598 -124 120
11641 -146 134
11700 -168 148
11767 -190 161
11796 -212 175
11817 -234 189
11816 -256 202
11820 -278 215
11805 -299 227
11801 -321 240
11804 -342 252
11793 -364 265
11804 -386 278
11810 -408 290
11803 -430 302
11815 -452 315
11818 -474 327
11825 -496 340
11852 -519 353
11885 -543 366
11897 -565 378
11884 -587 389
14575 -747 492
14586 -775 507.00003
14633 -805 523
14660 -834 538
14672 -862 553
14722 -892 569
14763 -923 584
14806 -953 600
14825 -982 615
14848 -1011.0001 630
14897 -1043 645
14905 -1071 659
14943 -1102 675
14978 -1133 690
15016 -1164 705
15038 -1194 720
15054 -1224 734
15089 -1256 749
15116 -1286 763
15171 -1319 779
15177 -1348 792
15244 -1383 808
15287 -1415 824
15311 -1446 837
15324 -1476 851
15353 -1508 865
15378 -1539 879
15445 -1574 895
15443 -1603 907
15508 -1638 923
15506 -1667 935
15585 -1704 951
15609 -1736 965
15641 -1769 978
15671 -1802 992
15715 -1836 1006.0001
15729 -1867 1019.0001
15782 -1903 1034
15791 -1933 1046
15960 -1984 1068
16132.999 -2035.0001 1091
16177.999 -2071 1106
16540 -2148 1142
16740 -2205 1167
16787 -2242 1182
16800 -2275 1194
16916 -2322 1213
16945 -2357 1226
16978 -2393 1239
17029 -2431 1254
17064 -2467 1267
17063 -2498 1278
17176 -2546 1297
17195 -2580 1309
17236 -2618 1322
17314 -2661 1338
17334 -2695 1350
17346 -2728 1361
17402 -2768 1375
17466 -2810 1390
17501 -2847 1402
17570 -2889 1417
17551 -2918 1425
17622 -2961 1440
17680 -3002 1454
17728 -3041 1467
17741 -3074 1477
17839 -3123 1494
17856 -3157 1505
17809 -3180 1509
17996 -3245 1534
18000 -3277 1542
18105 -3328 1560
18146 -3367 1572
18149 -3399 1580
18137 -3428 1587
18065 -3446 1589
18066 -3476 1596
18070 -3508 1605
18074 -3539 1612
18049 -3565 1617
18027 -3591 1622
18013 -3618 1628
17997 -3645 1634
18000 -3676 1641
17957 -3697 1643
17964 -3728 1651
17934 -3752 1654
17932 -3780 1660
17921 -3807 1665
17911 -3834 1670
17903 -3861 1675
17895 -3888 1680
17881 -3913 1684
17852 -3936 1687
17822 -3957 1689
17823 -3985 1694
17826 -4014 1700
17789 -4033 1701
17801 -4064.0002 1707
17774 -4085 1709
17772 -4112 1713
17774 -4140 1718
17711 -4152 1716
17655 -4166 1715
17653 -4192 1719
17652 -4218 1722
17643 -4243 1725
17607 -4260 1725
17589 -4281 1727
17620 -4315 1734
17633 -4344 1738
17627 -4368 1741
17623 -4392 1744
17606 -4413 1745
17528 -4419 1740
17495 -4435 1740
17531 -4469 1746
17507 -4487 1746
17500 -4509 1748
17482 -4529 1748
17470 -4550 1749
17470 -4574 1751
17475 -4598 1753
17473 -4622 1755
17481 -4647 1757
17447 -4661 1756
17453 -4685 1758
17448 -4706 1758
17440 -4726 1758
17428 -4746 1759
17409 -4763 1758
17414 -4786 1759
17410 -4806 1760
17390 -4822 1759
17393 -4845 1759
17381 -4862 1759
17364 -4879 1757
17337 -4892 1755
17340 -4913 1755
17312 -4925 1753
17311 -4945 1752
17298 -4962 1751
17293 -4980 1750
17272 -4993 1748
17274 -5013 1748
17269 -5031 1747
17248 -5043 1744
17227 -5056 1741
17240 -5078 1742
17243 -5097 1741
17208 -5105 1736
17211 -5124 1736
17217 -5143 1735
17191 -5153 1731
17196 -5172 1730
17171 -5181 1726
17179 -5200 1726
17169 -5213 1723
17166 -5229 1721
17144 -5238 1716
17144 -5254 1714
17154 -5273 1713
17145 -5286 1710
17128 -5295 1707
17123 -5309 1704
17114 -5321 1700
17105 -5333 1697
17095 -5344 1693
17076 -5352 1689
17087 -5369 1687
17067 -5377 1683
17065 -5389 1680
17062 -5402 1676
17064 -5415 1673
17046 -5422 1669
17044 -5434 1665
17048 -5448 1662
17037 -5456 1658
17035 -5467 1654
17023 -5475 1649
17020 -5486 1645
17018 -5496 1641
17015 -5506 1637
16999 -5511 1632
16999 -5522 1628
16985 -5528 1623
16978 -5535 1618
16974 -5544 1613
16982 -5556 1610
16949 -5555 1602
16936 -5559 1596
16930 -5566 1592
16917 -5571 1586
16910 -5576 1581
16882 -5575 1573
16886 -5585 1569
16865 -5585 1562
16854 -5589 1556
16866 -5600 1552
16854 -5603 1546
16846 -5607 1540
16863 -5619 1537
16836 -5617 1529
16835 -5622 1524
16836 -5628 1518
16843 -5636 1514
16844 -5641 1508
16831 -5642 1502
16832 -5647 1496
16829 -5651 1490
16827 -5654 1484
16816 -5655 1478
16827 -5662 1472
16816 -5662 1466
16809 -5663 1459
16814 -5668 1453
16801 -5666 1446
16800 -5669 1440
16789 -5667 1433
16801 -5674 1428
16809 -5678 1422
16792 -5674 1414
16801 -5679 1408
16791 -5677 1401
16777 -5673 1393
16786 -5677 1387
16785 -5677 1380
16779 -5675 1373
16771 -5672 1366
16785 -5677 1360
16788 -5677 1354
16774 -5672 1346
16781 -5673 1339
16773 -5669 1331
16773 -5668 1324
16781 -5669 1318
16781 -5667 1311
16765 -5659 1302
16767 -5657 1295
16770 -5656 1288
16794 -5661 1283
16773 -5651 1274
16778 -5649 1266
16778 -5645 1259
16790 -5646 1252
16787 -5640 1244
16784 -5635 1237
16786 -5631 1229
16782 -5625 1221
16783 -5620 1214
16799 -5620 1207
16777 -5607 1197
16784 -5604 1190
16795 -5602 1183
16798 -5596 1175
16785 -5586 1166
16793 -5581 1159
16807 -5579 1152
16797 -5569 1143
16806 -5564 1135
16761 -5542 1124
16798 -5546 1119
16759 -5525 1108
16703 -5498 1096
16633 -5467 1083
16531 -5425 1068
16494 -5403 1058
16452 -5380 1047
16417 -5359 1036
16390 -5341 1027
16377.001 -5327 1018
16370.001 -5315 1008.9999
16316 -5287 998
16280.001 -5265 987
16257 -5247 978
16195.999 -5217 966
16158.001 -5194 955
16132.999 -5174 946
16101.999 -5153 936
16087 -5137 926
16052 -5114 916
16041 -5098 908
15987 -5069 896
15949 -5045 886
15910 -5020 875
15836 -4984 863
15796 -4958 852
15811 -4950 845
15776 -4926 835
15752 -4905 826
15717 -4880 816
15708 -4863 807
15658 -4834 796
15602 -4803 785
15603 -4789 777
15584 -4768 768
15526 -4736 758
15494 -4711 748
15484 -4693 739
15470 -4674 730
15399 -4637 719
14142 -4244 653
13932 -4167 636
13907 -4145 627
13894 -4127 620
13881 -4108 612
13869 -4090.0002 604
13832 -4064.0002 595
13841 -4051 589
13822 -4031.0002 581
13805 -4011.0002 573
13790 -3990 565
13774 -3970 557
13757 -3949 549
13766 -3935 543
13729 -3909 534
13704 -3886 526
13704 -3869 519
13678 -3845 510.99997
13688 -3831 505
13653 -3804 497
13632 -3782 489
13612 -3759 481
13609 -3741 474
13582 -3716 466
13564 -3694 459
13552 -3673 452
13543 -3652 445
13502 -3623 437
13498 -3604 430
13489 -3583 423
13470 -3560 415
13446 -3535 408
13431 -3513 401
13424 -3492 394
13384 -3463 387
13383 -3444 380
13361 -3419 373
13358 -3399 367
13336 -3375 360
13314 -3350 353
13288 -3323 346
13281 -3302 340
13254 -3276 333
13239 -3252 326
13230 -3230 320
13207 -3204 313
13199 -3182 307
13169 -3155 300
13147 -3129 294
13132 -3105 288
13103 -3078 281
13087 -3054 275
13079 -3031 269
13059 -3005 263
13036 -2979 257
13023 -2955 250.99998
12992 -2927 245
12969 -2901 239
12948 -2875 233
12943 -2852 228
12927 -2827 222
12894 -2798 216
12875 -2773 211
12849 -2746 205
12842 -2722 200
12799 -2692 195
12794 -2669 189
12767 -2641 184
12737 -2613 179
12718 -2587 174
12701 -2561 169
12660 -2531 163
12623 -2501 158
12553 -2465 153
12496 -2432 148
12396 -2390 142
12300 -2350 137
12169 -2303 131
12044 -2257 126
11932 -2215 121
11794 -2168 115
11657 -2121 110
11528 -2076 105
11467 -2043.9999 101
11430 -2016 97
11408 -1991 94
11402 -1969 90
11383 -1945 86
11362 -1920 83
11355 -1897 80
11333 -1873 76
11335 -1851 73
11301 -1824 70
11329 -1807 67
11301 -1781 64
11303 -1760 61
11294 -1736 58
11285 -1713 55
11229 -1683 52
11277 -1668 50
11269 -1645 47
11271 -1623 45
11258 -1599 42
11250 -1576 40
11242 -1552 38
11242 -1531 35
11216 -1505 33
11216 -1482 31
11213 -1460 29
11195 -1435 27
11203 -1414 25
11155 -1385 23
11181 -1367 21
11152 -1340 20
11179 -1321 18
11145 -1294 16
11166 -1274 15
11149 -1250 13
11138 -1226 12
11114 -1200 11
11083 -1174 9
11061 -1149 8
11046 -1125 7
11025 -1099 6
11054 -1080 5
11038 -1055 4
11144 -1042 4
11150 -1020 3
11129 -995 2
11148 -974 1
11156 -951 1
11154 -928 1
11147 -904 0
11134 -879 0
11143 -856 0
11151 -834 0
11160 -810 0
11149 -786 0
11144 -763 0
11171 -741 0
11179 -718 0
11182 -695 0
11166 -671 1
11179 -648 1
11173 -624 2
11159 -599 2
11163 -575 3
11204 -554 4
11192 -529 5
11196 -505.99997 5
11183 -481 6
11183 -458 8
11196 -434 9
11211 -411 10
11200 -387 11
11220 -364 13
11227 -340 14
11234 -316 16
11244 -292 17
11240 -268 19
11254 -244 21
11256 -220 23
11280 -197 25
11279 -173 27
11284 -149 29
11284 -125 31
11293 -101 33
11295 -77 36
11321 -53 38
11320 -29 41
11327 -5 43
11332 18 46
11349 42 49
11361 67 52
11373 91 55
11385 115 58
11392 140 61
11409 165 64
11419 189 67
11425 213 71
11437 238 74
11465 263 78
11483 288 82
11500 312 85
11505 337 89
11533 362 93
11541 387 97
11559 412 101
11555 436 105
11577 461 110
11597 486 114
11627 512 119
11628 536 123
11653 562 128
11652 586 132
11669 611 137
11689 637 142
11696 661 147
11696 685 152
11726 711 157
11726 736 162
11766 763 168
11792 788 173
11783 812 178
11786 836 184
11820 863 190
11841 889 196
11870 916 202
11885 941 207
11912 967 214
11921 993 220
11910 1016.0001 225
11931 1042 232
11969 1070 239
12013 1098 246
12028 1124 252
12057 1150 259
12090 1177 266
12131 1206 274
12161 1233 281
12212 1262 289
12236 1289 296
12248 1315 303
12273 1342 311
12288 1368 318
12301 1393 326
12323 1420 333
12337 1446 341
12340 1470 348
12378 1499 357
12391 1524 364
12399 1549 372
12423 1576 380
12425 1600 388
12440 1626 396
12452 1652 404
12461 1676 412
12480 1702 421
12502 1729 430
12518 1755 438
12528 1780 447
12537 1805 455
12565 1833 465
12569 1857 473
12581 1882 482
12590 1906 491
12601 1931 500
12620 1957 509
12641 1983 518
12636 2006 527
12654 2032.0001 536
12669 2056 545
12701 2085 556
12714 2109 565
12740 2136 575
12754 2161 585
12779 2188 595
12785 2212 605
12804 2237 615
12993 2294 633
12988 2315 642
12975 2335 651
12939 2351 659
12919 2369 667
12921 2392 677
12971 2423 689
13022 2454 702
13022 2476 711
13005 2494 720
13177 2549 739
13165 2568 748
13158 2589 758
13177 2614 769
13239 2648 783
16651 3357 997
16682 3390 1011.0001
16769 3434 1030
16821 3472 1046
16882 3511 1063
16900 3541 1077
16955 3579 1093
17034 3622 1111
17146 3672 1132
17207 3712 1149
17283 3754 1168
17289 3781 1181
17339 3818 1198
17294 3834 1209
17352 3872 1226
17435 3916 1246
17547 3967 1268
17629 4011.0002 1287
17667 4046 1304
17654 4067.9998 1317
17621 4085 1328
17603 4105 1341
17609 4132 1355
17622 4159 1370
17629 4185 1384
17642 4213 1399
17683 4246 1417
17677 4269 1431
17676 4292 1444
17684 4318 1459
17686 4342 1473
17679 4363 1486
17679 4386 1500
17691 4411 1515
17705 4437 1531
17699 4458 1544
17719 4485 1560
17711 4505 1573
18292 4676 1639
19090 4903 1725
19114 4932 1743
19268 4994 1772
19356 5040 1795
19456 5089 1819
19511 5126 1840
19506 5147 1854
19581 5189 1877
19744 5254 1908
19840 5301 1933
19871 5332 1951
19790 5332 1958
19732 5337 1968
19747 5362 1984
19737 5380 1998
19726 5398 2013
19724 5418 2027
19721 5437 2042
19703 5452 2055
19689 5468 2069
19734 5500 2089
20031 5602 2135
20094 5639 2157
20076 5653 2170
20046 5663 2182
20014 5673 2194
19990 5684 2206
19976 5698 2220
19959 5711 2233
19920 5717 2243
19887 5725 2254
19941 5757 2275
20247 5863 2324
20748 6026 2397
20869 6078 2426
20898 6103 2445
20917 6125 2461
21051 6180 2493
21186 6236 2524
21327 6293 2556
21458 6348 2587
21516 6380 2609
21574 6413 2630
21597 6435 2648
21579 6444 2661
21625 6472 2682
21790 6536 2717
21986 6609 2756
22100 6657 2786
22160 6689 2808
22256 6732 2835
22279 6753 2853
22299 6771 2871
22320 6790 2888
22369 6818 2909
22404 6840 2927
22417 6856 2944
22424 6870 2959
22470 6895 2979
22539 6928 3003
22602 6958 3025
22626 6975 3042
22622 6984 3056
22616 6992 3069
22603 6998 3081
22617 7012 3096
22648 7030 3114
22700 7055 3134
22685 7059 3146
22727 7080 3165
22747 7094 3181
22723 7094 3190
22700 7094 3200
0 0 0
0 0 0
0 0 0
0 0 0
22774 7149 3274
22764 7151 3284
22816 7172 3304
22746 7155 3306
22728 7154 3315
22702 7150 3323
22850 7200 3356
22725 7165 3350
22715 7165 3360
22621 7138 3356
22583 7129 3362
0 0 0
0 0 0
0 0 0
22495 7108 3391
0 0 0
0 0 0
22528 7121 3427
22602 7145 3448
0 0 0
22503 7113 3452
0 0 0
0 0 0
22566 7130 3490
22523 7114 3492
22621 7144 3517
22546 7118 3513
22591 7129 3529
22617 7135 3542
22626 7135 3552
22583 7118 3554
22610 7123 3566
22691 7144 3587
22652 7127 3588
22706 7140 3604
22783 7159 3624
22787 7155 3632
22792 7151 3640
22820 7154 3652
22803 7143 3656
22836 7147 3668
0 0 0
25804 8060.0005 4160
25881 8076 4179
25954 8090 4197
25997 8094 4212
26029 8095.0005 4224
23147 7190 3762
23213 7202 3778
23295 7218 3797
23252 7195 3795
23320 7206 3811
23291 7187 3812
23336 7191 3823
23429 7208 3844
23502 7220 3860
23524 7215 3868
23587 7223 3882
23739 7257 3911
23678 7226 3905
23719 7226 3915
23844 7251 3940
23934 7265 3958
24027 7279 3977
24006 7259 3977
24004 7244 3979
24031 7238 3986
27400 8235 4548
27492 8245 4566
24288 7269 4035.9998
24332 7266 4045
24401 7270 4058
24470 7274 4072
24631 7304 4100
24539 7260 4086
24752 7305 4122
24841 7313 4138
24956 7329 4158
25062 7341 4176
25212 7366 4202
25215 7347 4202
25210 7327 4201
25256 7320 4209
26483 7654 4413
26543 7649 4422
26392 7583 4396
26429 7572 4401
26392 7539 4394
26100 7433 4344
26002 7382 4326
25820 7307 4294
25705 7252 4272
25717 7232 4272
25736 7213 4273
25735 7189 4270
25753 7170 4270
25761 7148 4268
25739 7117 4261
25727 7088 4256
25723 7062 4252
25730 7038 4248
25728 7012 4244
25724 6984 4239
25732 6961 4236
25730 6933 4231
25731 6906 4227
25760 6887 4226
22109 5887 3622
22192 5885 3631
22235 5872 3633
22161 5829 3616
22190 5812 3615
22228 5797 3616
22250 5778 3614
22377 5786 3629
22481 5787 3639
25764 6603 4164
17378 4433 2803
17386 4415 2799
17402 4398 2797
17424 4383 2795
17430 4363 2790
17419 4339 2783
17406 4316 2775
17365 4284 2762
17381 4266 2759
17380 4244 2752
17375 4222 2745
17386 4202 2740
17432 4192 2740
17450 4173 2736
17565 4179 2747
25515 6037 3980
25315 5957 3938
25269 5914 3921
25115 5844 3886
24988 5782 3855
24240 5576 3728
24286 5554 3724
24209 5504 3701
24215 5473 3690
24231 5443 3681
24228 5410 3669
20947 4649 3162
20878 4604 3141
20785 4555 3116
20177 4394 3014
20121 4353 2995
19832 4263 2941
19958 4262 2948
19912 4224 2931
20019 4218 2935
20185 4223 2947
20353 4229 2960
20559 4243 2978
20785 4259 2998
20988 4271 3014
21196 4282 3032
21472 4306 3058
21695 4319 3076
21953 4338 3098
22229 4359 3122
22381 4356 3129
22470 4339 3126
22137 4242 3065
21326 4054 2938
21206 3999 2907
21172 3961 2887
21140 3923 2868
21136 3890 2852
21149 3859 2838
21170 3830 2826
21183 3801 2811
21196 3770 2797
21211 3740 2783
21163 3698 2760
21179 3668 2746
21208 3640 2733
21200 3605 2715
21254 3581 2705
21304 3555 2694
21353 3530 2683
21343 3495 2664
21318 3457 2643
21334 3426 2627
18801 2989 2299
18845 2966 2289
18718 2916 2257
21450 3307 2568
21443 3272 2547
21442 3237 2528
21444 3202 2509
21432 3166 2488
21437 3132 2469
21444 3098 2450
21469 3066 2432
21399 3021 2404
21274 2969 2370
21045 2903 2325
21029 2867 2303
20872 2811 2265
20782 2766 2235
16929 2225 1804
16908 2195 1785
16875 2163 1765
16822 2129 1742
16838 2103 1726
16842 2076 1710
16839 2048 1692
16851 2023 1676
16854 1995 1658
16869 1969 1642
16899 1944 1627
16916 1918 1610
16918 1890 1592
16942 1865 1576
16938 1837 1557
16939 1809 1538
16963 1783 1521
16969 1756 1503
17011 1732 1487
16991 1703 1466
17012 1677 1449
17061 1653 1433
17053 1624 1413
17065 1597 1394
17073 1570 1374
17094 1543 1356
17116 1517 1337
17070 1485 1313
17081 1457 1293
17104 1431 1274
17131 1406 1256
17129 1378 1235
17108 1348 1212
17004 1312 1184
16896 1276 1155
16788 1240 1127
16678 1204 1098
16590 1171 1071
16471 1136 1043
16403 1104 1016.9999
16308.001 1071 990
16207.001 1038 963
16105 1005 936
16038 974 911
15957 943 885
15852 911 858
15766 881 832
15703 851 808
15568 819 780
15489 790 755
15426 762 731
15329 732 706
15259 705 682
15187 677 657
15094 649 633
15020 622 608
14949 595 585
14850 567 560
14720 539 534
14665 514 512
14613 488 489
14546 464 466
11857 359 362
11840 340 345
11795 320 326
11784 301 309
11770 282 291
11768 264 274
11766 246 257
11777 228 240
11785 210 223
11786 192 205
11786 174 187
11770 155 169
11665 136 150
11600 118 132
11564 100 114
11491 82 96
11429 64 78
11362 47 60
11318 30 43
11251 13 25
11200 -3 8
11131 -19 -8
11054 -35 -25
10971 -51 -42
10792 -66 -58
10612 -81 -74
10420 -94 -89
10390 -109 -105
10380 -124 -121
10379 -139 -138
10393 -154 -154
10386 -169 -170
10404 -184 -187
10410 -198 -204
10405 -213 -220
10418 -228 -237
10426 -242 -254.00002
10432 -257 -271
10429 -271 -288
10446 -286 -305
10449 -301 -322
10459 -315 -339
10463 -330 -357
10475 -344 -374
10483 -359 -391
10475 -372 -408
10475 -386 -426
10494 -401 -444
10500 -415 -461
10511 -429 -479
10519 -444 -497
10519 -457 -514
10520 -471 -532
10532 -485 -549
10539 -499 -567
10542 -512 -585
10556 -527 -604
10557 -540 -621
10558 -554 -639
10567 -567 -657
10567 -580 -675
10566 -593 -693
6970 -400 -469
6952 -408 -479
6884 -412 -486
6845 -418 -495
6845 -426 -507.00003
6831 -433 -517
6812 -440 -527
6802 -448 -538
6827 -457 -551
6815 -464 -562
6817 -472 -573
6839 -482 -587
10226 -732 -894
10158 -739 -906
10114 -747 -919
10068 -755 -932
10050 -764 -947
10002 -772 -960
9970 -780 -974
9939 -789 -987
9881 -795 -998
9850 -803 -1011.9999
9804 -810 -1024
9770 -817 -1036
9729 -824 -1048
9673 -829 -1059
9629 -835 -1070
9601 -842 -1083
9575 -850 -1096
9525 -855 -1106
9489 -862 -1118
9452 -868 -1130
9418 -874 -1142
9369 -878 -1152
9346 -885 -1164
9313 -891 -1176
9262 -895 -1185
9227 -900 -1196
9196 -906 -1207
9151 -910 -1216
9120 -915 -1227
9093 -920 -1239
9063 -926 -1250
9021 -929 -1259
8977 -933 -1268
8945 -937 -1278
8913 -942 -1288
8873 -945 -1296
8840 -949 -1306
8816 -954 -1317
8774 -957 -1325
8742 -960 -1334
8736 -967 -1348
8694 -969 -1355
8664 -973 -1365
8637 -977 -1374
8602 -980 -1383
8573 -983 -1392
8529 -984 -1398
8506 -988 -1408
8492 -993 -1419
8450 -994 -1426
8419 -997 -1434
8384 -999 -1442
8368 -1003 -1452
8337 -1005 -1460
8304 -1007 -1467
8282 -1010 -1476
8257 -1013 -1485
8236 -1016.0001 -1494
8207 -1018 -1501
8181 -1020 -1509
8139 -1020 -1514
8120 -1023 -1524
8086.0005 -1024 -1529
8071.9995 -1027 -1539
8054 -1030 -1548
8023 -1031 -1554
7994 -1032 -1561
7961 -1033 -1567
7946 -1035 -1576
7900 -1034 -1578
7876 -1035 -1585
7870 -1039 -1595
7862 -1042 -1605
7861 -1046 -1617
7851 -1049 -1626
7789 -1045 -1625
7768 -1046 -1632
7752 -1048 -1639
7743 -1051 -1649
7723 -1052 -1655
7711 -1054 -1664
7675 -1053 -1667
7621 -1049 -1666
7618 -1052 -1676
7590 -1052 -1680
7570 -1052 -1686
7576 -1057 -1698
7566 -1059 -1706
7532 -1057 -1709
7525 -1059 -1718
7509 -1060 -1724
7491 -1060 -1730
7471 -1060 -1735
7447 -1060 -1739
7382 -1053 -1734
7389 -1057 -1745
7359 -1055 -1748
7355 -1057 -1757
7338 -1058 -1762
7329 -1059 -1769
7320 -1060 -1776
7305 -1060 -1782
7285 -1059 -1786
7289 -1062 -1796
7285 -1064 -1804
7254 -1061 -1805
7231 -1060 -1808
7203 -1058 -1810
7163 -1054 -1809
7144 -1053 -1812
7117 -1051 -1814
7100 -1050 -1818
7132 -1056 -1834
7106 -1054 -1836
7055 -1048 -1831
7047 -1048 -1836
7053 -1050 -1846
7033 -1049 -1848
7025 -1049 -1854
7027 -1050 -1862
7002 -1048 -1863
6983 -1046 -1866
6971 -1045 -1869
6951 -1043 -1871
6950 -1044 -1878
6941 -1044 -1883
6907 -1039 -1881
6906 -1040 -1887
6914 -1042 -1897
6886 -1038 -1896
6880 -1038 -1901
6882 -1039 -1908
6859 -1036 -1908
6843 -1034 -1910
6836 -1033 -1914
6821 -1031 -1917
6789 -1027 -1914
6813 -1031 -1927
6795 -1028 -1927
6761 -1023 -1924
6773 -1025 -1933
6762 -1023 -1935
6756 -1023 -1940
6744 -1021 -1942
6723 -1016.9999 -1941
6722 -1016.9999 -1946
6729 -1018 -1954
6709 -1015 -1953
6683 -1010 -1951
6683 -1010 -1956
6679 -1008.9999 -1960
6661 -1006.0001 -1959
6673 -1007 -1967
6647 -1003 -1964
6647 -1002 -1969
6643 -1001.0001 -1972
6650 -1001.0001 -1979
6621 -996 -1975
6621 -996 -1979
6628 -996 -1985
6596 -990 -1980
6604 -991 -1986
6598 -989 -1988
6579 -985 -1987
6586 -985 -1993
6579 -983 -1994
6583 -982 -1999
6567 -979 -1997
6553 -975 -1997
6557 -975 -2000.9999
6548 -972 -2002.0001
6545 -970 -2004
6540 -968 -2006
6538 -967 -2007.9999
6534 -965 -2009.0001
6523 -961 -2009.0001
6521 -960 -2010.9999
6521 -958 -2014
6498 -953 -2009.0001
6504 -952 -2014
6502 -950 -2015.0001
6477 -945 -2010
6494 -945 -2017
6500 -945 -2020.9999
6490 -941 -2020
6468 -936 -2016
6472 -935 -2019
6478 -933 -2022.0001
6477 -931 -2023.9999
6454 -926 -2017.9999
6464 -925 -2023
6467 -923 -2025.0001
6454 -920 -2022.0001
6453 -917 -2023
6461 -916 -2027
6458 -913 -2027
6458 -911 -2028.0001
6455 -908 -2028.0001
6451 -905 -2028.0001
6455 -903 -2030
6459 -901 -2032.0001
6439 -896 -2026
6447 -894 -2029
6461 -894 -2033.9999
6457 -890 -2033
6463 -889 -2035.0001
6459 -885 -2033.9999
6455 -882 -2033
6442 -878 -2028.0001
6445 -875 -2029
6459 -874 -2033
6455 -871 -2032.0001
6449 -867 -2030
6454 -865 -2030.9999
6456 -862 -2030.9999
6457 -859 -2030.9999
6458 -856 -2030
6465 -854 -2032.0001
6462 -851 -2030
6452 -846 -2026
6465 -845 -2029
6465 -841 -2027
6474 -839 -2029
6471 -836 -2027
6470 -832 -2025.0001
6489 -831 -2029
6485 -827 -2026
6483 -824 -2023.9999
6491 -821 -2025.0001
6471 -815 -2017
6490 -814 -2020.9999
6497 -811 -2020.9999
6489 -807 -2016
6502 -805 -2017.9999
6514 -803 -2020
6508 -798 -2015.0001
6507 -794 -2012.0001
6534 -794 -2017.9999
6506 -787 -2007
6510 -783 -2005.0001
6510 -780 -2003
6547 -780 -2010.9999
6523 -773 -2000.9999
6530 -770 -2000
6545 -768 -2000.9999
6560 -766 -2002.0001
6556 -761 -1998
6574 -760 -2000
6576 -756 -1997
6571 -751 -1992
6583 -748 -1992
6594 -745 -1991
6607 -743 -1991
6600 -738 -1985
6611 -735 -1984
6619 -731 -1983
6613 -726 -1976
6618 -723 -1973
6623 -719 -1971
6627 -715 -1967
6633 -711 -1964
6651 -709 -1965
6678 -707 -1968
6692 -704 -1967
6714 -702 -1969
6700 -696 -1960
6695 -691 -1953
6714 -688 -1953
6736 -686 -1954
6735 -681 -1949
6758 -679 -1950
6768 -675 -1947
6782 -672 -1945
6786 -668 -1941
6794 -664 -1937
6786 -659 -1929
6797 -655 -1926
6820 -652 -1926
6831 -648 -1923
6838 -644 -1919
6861 -642 -1919
6862 -637 -1912
6883 -634 -1911
6896 -630 -1908
6903 -626 -1904
6905 -621 -1897
6922 -618 -1895
6912 -612 -1885
6945 -610 -1887
6964 -606 -1885
6991 -604 -1884
6997 -599 -1878
6991 -594 -1869
7006 -590 -1866
7036 -587 -1866
7028 -581 -1856
7045 -577 -1852
7071 -575 -1851
7080 -570 -1845
7071 -564 -1834
7102 -561 -1834
7097 -556 -1824
7122 -553 -1822
7148 -549 -1820
7191 -547 -1822
7238 -546 -1825
7250 -541 -1819
7260 -537 -1813
7270 -532 -1806
7277 -527 -1798
7296 -523 -1794
7320 -519 -1790
7302 -513 -1776
7343 -510 -1776
7367 -505.99997 -1772
7378 -501.99997 -1765
7392 -497 -1758
7402 -492 -1751
7417 -488 -1744
7439 -484 -1739
7444 -479 -1730
7498 -477 -1732
7484 -470 -1718
7518 -467 -1715
7566 -465 -1714
7580 -460 -1707
7582 -454 -1696
7620 -451 -1693
7649 -447 -1689
7671 -443 -1682
7694 -439 -1675
7723 -435 -1670
7691 -428 -1652
7739 -425 -1650
7802 -423 -1652
7817 -418 -1643
7836 -413 -1635
7835 -408 -1622
7859 -404 -1615
7884 -399 -1608
7889 -394 -1596
7871 -387 -1580
7967 -387 -1586
7997 -383 -1579
8017.9995 -378 -1570
8033 -373 -1560
8068 -369 -1553
8095.0005 -365 -1545
8128.9995 -361 -1538
8149 -356 -1528
8182.9995 -352 -1521
8211 -348 -1512
8243 -343 -1504
8279 -339 -1497
8309 -335 -1488
8330 -330 -1477
8360 -326 -1468
8396 -322 -1460
8422 -317 -1450
8457 -313 -1441
8491 -309 -1432
8532 -305 -1424
8550 -300 -1412
8600 -296 -1405
8629 -292 -1394
8660 -288 -1384
8686 -283 -1372
8735 -279 -1364
8770 -275 -1353
8811 -271 -1344
8842 -266 -1332
8868 -262 -1320
8918 -258 -1311
8959 -254.00002 -1300
8988 -249 -1288
9024 -245 -1276
9062 -241 -1264
9109 -236 -1254
9143 -232 -1241
9189 -228 -1230
9223 -224 -1217
9265 -219 -1205
9306 -215 -1193
9341 -211 -1180
9380 -207 -1166
9428 -203 -1154
9476 -199 -1142
9525 -194 -1129
9567 -190 -1116
9614 -186 -1102
9644 -182 -1086
9694 -178 -1073
9753 -174 -1060
9808 -170 -1047
9846 -165 -1031
9896 -161 -1016.9999
9946 -157 -1002
9997 -153 -988
10039 -149 -972
10107 -146 -958
10157 -142 -942
10198 -137 -925
6812 -89 -604
6791 -85 -589
6808 -83 -577
6796 -79 -562
6789 -76 -547
6793 -74 -534
6821 -71 -522
6848 -68 -510
6905 -66 -500
6931 -64 -488
6971 -61 -476
10546 -89 -699
10539 -85 -677
10522 -81 -654
10527 -77 -632
10511 -73 -609
10501 -69 -586
10497 -65 -565
10486 -62 -542
10475 -58 -520
10481 -55 -499
10467 -51 -476
10464 -48 -454
10456 -45 -431
10441 -41 -409
10445 -38 -387
10440 -35 -365
10421 -32 -342
10427 -29 -320
10416 -26 -298
10411 -24 -276
10401 -21 -254.00002
10403 -18 -232
10381 -16 -209
10387 -13 -187
10375 -11 -165
10371 -8 -143
10377 -6 -120
10441 -4 -99
10710 -2 -79
10929 0 -57
11057 1 -34
11144 3 -10
11195 5 12
11278 7 37
11414 9 62
11482 11 86
11608 13 112
11650 15 137
11771 17 164
11793 18 190
11787 20 214
11787 21 240
11775 22 265
11778 23 290
11787 25 315
11785 26 340
11901 27 369
14583 34 484
14740 35 521
14785 36 554
14752 37 584
14769 38 616
14756 38 647
14758 39 679
14722 39 708
14729 39 740
14712 39 771
14719 40 802
14702 40 832
14727 39 865
14740 39 897
14710 39 926
14696 38 956
14730 38 989
14809 38 1026
17053 42 1217
17178 42 1263
17343 41 1312
17512 40 1361
17641 39 1408
17876 38 1464
18131 37 1522
18181 36 1565
18223 34 1606
18237 32 1646
18250 30 1685
18285 28 1726
18271 25 1762
18258 23 1799
18238 20 1835
18206 17 1870
18251 15 1912
18273 12 1952
18275 9 1989
18306 6 2030.9999
18309 2 2069
18314 0 2107
18288 -4 2141
18352 -7 2186
18364 -11 2225
18417 -15 2269
18482 -19 2314
18570 -23 2362
19001 -28 2456
19988 -34 2623
20152 -39 2685
20139 -44 2723
20148 -49 2765
20118 -55 2801
20141 -60 2844
20140 -65 2884
25801 -91 3745
25983 -98 3824
26393 -108 3936
26579 -116 4015.9998
26573 -124 4067
26547 -132 4113
26585 -140 4170
26674 -149 4235
26747 -157 4298
26825 -167 4362
26852 -176 4418
26842 -185 4468
26839 -194 4518
26827 -203 4567
26830 -212 4618
26836 -222 4670
26827 -232 4719
26818 -241 4767
26870 -250.99998 4826
14181 -138 2573
14192 -143 2601
14115 -148 2613
14071 -153 2631
14106 -159 2663
14107 -164 2689
14107 -170 2715
14084 -175 2736
14137 -182 2771
14063 -186 2782
14028 -192 2800
14010 -198 2821
13980 -203 2840
13961 -209 2861
13947 -215 2882
13945 -221 2906
13953 -227 2932
13955 -233 2956
13976 -240 2985
13982 -246 3010
14511 -262 3148
14545 -269 3180
14524 -276 3200
14501 -282 3218
14501 -289 3242
14494 -296 3265
14496 -302 3289
14501 -309 3314
14512 -317 3340
14517 -324 3365
14521 -331 3389
14521 -338 3412
14538 -346 3439
14501 -352 3453
14533 -360 3483
45622 -1154 11007
45800 -1181 11120
48388 -1272 11824
48333 -1296 11883
48323 -1321 11954
48303 -1344 12021
48293 -1369 12091
48262 -1393 12156
48257 -1417 12225
28266 -845 7202
28251 -859 7239
28191 -873 7265
28164 -886 7298
28145 -901 7333
28123 -915 7366
28133 -930 7408
28159 -947 7455
28080 -959 7472
48072 -1667 12858
48053 -1693 12919
48032 -1719 12978
48038 -1744 13043
48029 -1770 13105
47999 -1794 13159
47990 -1821 13219
47977 -1847 13278
47966 -1874 13337
47944 -1899 13391
47917 -1924 13444
47899 -1950 13499
47909 -1976 13560
47881 -2002.0001 13611
47872 -2027 13666
47846 -2054 13717
47840 -2080 13771
47826 -2106 13824
30201 -1347 8764
30070 -1358 8761
29939 -1369 8757
29782 -1378 8744
47746 -2236 14072
47740 -2263 14123
47733 -2288 14173
47719 -2315 14220
47705 -2341 14266
47697 -2367 14314
47689 -2394 14361
47679 -2419 14408
47654 -2445 14449
47642 -2471 14493
47643 -2498 14539
47618 -2523 14579
47612 -2550 14623
47588 -2575 14662
47600 -2602 14710
47569 -2626 14745
47565 -2652 14787
47573 -2680 14832
47574 -2706 14875
47541 -2731 14906
47541 -2758 14947
47520 -2783 14981
47520 -2808 15020
47509 -2834 15056
47498 -2860 15091
47494 -2884 15127
47472 -2909 15157
47482 -2937 15196
47476 -2962 15230
47466 -2987 15262
47469 -3012 15297
47441 -3038 15322
47435 -3062 15354
47433 -3087 15386
47404 -3111 15408
47418 -3136 15444
47417 -3160 15474
47409 -3185 15501
47380 -3209 15521
47400 -3235 15557
47389 -3261 15581
47374 -3284 15604
47363 -3308 15627
47357 -3333 15651
47352 -3357 15674
47355 -3381 15700
47351 -3405 15722
47321 -3427 15736
47332 -3452 15762
47327 -3475 15783
47327 -3499 15804
47309 -3520 15819
47300 -3543 15836
47300 -3566 15855
47299 -3589 15874
47307 -3614 15894
47299 -3636 15909
47296 -3659 15924
47309 -3684 15945
47303 -3705 15958
47290 -3727 15969
47273 -3748 15977
47293 -3771 15997
47272 -3792 16003
47279 -3815 16017
47284 -3837 16030.001
47275 -3859 16038
47266 -3880 16045
47273 -3901 16056.999
47279 -3923 16068.001
47263 -3943 16070.999
47260 -3964 16077
47256 -3984 16082.001
47266 -4005 16091.999
47280 -4027 16101.999
47279 -4047.9998 16106.001
47271 -4067.9998 16107
47270 -4087.9998 16110.001
47285 -4108 16118
47284 -4128 16118.999
47273 -4147 16117.001
47283 -4166 16121
47278 -4187 16118.999
47280 -4205 16118.999
47316 -4227 16129.999
47283 -4243 16117.001
47273 -4260 16111
47279 -4280 16108.999
47294 -4299 16110.001
47305 -4318 16108.999
47311 -4336 16106.001
47301 -4353 16096.001
47311 -4372 16093
47295 -4388 16079
47319 -4407 16079
47315 -4423 16069
47310 -4439 16058.001
47301 -4455 16045
47333 -4473 16045
47328 -4489 16032
47330 -4505 16020
47313 -4520 16002.001
47326 -4535 15993
47344 -4553 15985
47353 -4569 15973
47345 -4583 15955
47353 -4599 15941
47374 -4615 15931
47378 -4629 15915
47374 -4643 15896
47399 -4658 15886
47389 -4671 15863
47382 -4684 15841
47384 -4697 15820
47405 -4712 15806
47411 -4726 15786
47409 -4737 15763
47409 -4749 15739
47429 -4764 15722
47462 -4779 15708
47437 -4787 15675
47465 -4801 15658
47480 -4814 15636
47469 -4824 15605
47500 -4838 15588
47484 -4847 15554
47513 -4859 15535
47523 -4870 15508
47538 -4881 15482
47544 -4892 15453
47548 -4901 15423
47557 -4911 15393
47554 -4920 15359
47583 -4930 15335
47586 -4938 15302
47594 -4948 15270
47609 -4957 15239
47601 -4963 15200
47614 -4971 15167
47651 -4982 15142
47644 -4988 15101
47656 -4996 15067
47661 -5003 15029
47684 -5010 14997
47686 -5017 14956
47717 -5025 14926
47725 -5031 14886
47722 -5034 14843
47750 -5042 14810
47753 -5047 14767
47758 -5052 14725
47791 -5059 14690
47784 -5061 14644
47811 -5067 14606
47823 -5071 14563
47831 -5075 14519
47833 -5078 14471
47832 -5080 14423
47874 -5085 14387
47886 -5087 14341
47900 -5089 14296
47911 -5091 14249
47940 -5097 14207
47936 -5096 14155
47947 -5097 14106
47960 -5097 14057
47978 -5098 14009
48001 -5100 13961
48005 -5100 13908
48014 -5099 13856
48024 -5099 13804
48056 -5099 13758
48088 -5101 13710
48086 -5099 13651
48093 -5097 13596
48131 -5096 13548
48147 -5094 13494
29120 -3078 8126.0005
29269 -3091 8130.9995
29261 -3089 8092
48211 -5085 13273
48220 -5080 13215
48224 -5075 13154
48246 -5072 13098
48259 -5067 13039
28214 -2958 7586
28307 -2964 7573
28222 -2951 7513
28279 -2952 7490
28297 -2949 7457
28282 -2943 7415
28282 -2938 7376
28290 -2934 7339
48418 -5013 12494
48466 -5009 12439
48500 -5003 12379
48521 -4996 12316
28513 -2929 7197
28946 -2967 7265
29071 -2973 7255
29226 -2982 7252
48616 -4950 11994
48713 -4948 11946
48683 -4932 11869
48715 -4923 11804
48720 -4911 11732
29581 -2973 7079
29573 -2964 7032
29511 -2949 6973
29558 -2945 6939
29555 -2935 6893
29598 -2931 6857
29572 -2919 6805
29602 -2912 6767
29607 -2903 6721
29627 -2895 6680
29592 -2881 6625
29565 -2867 6572
29575 -2858 6527
29667 -2856 6500
15471 -1483 3365
14967 -1429 3231
14908 -1418 3194
14912 -1412 3171
14944 -1409 3153
14815 -1391 3103
14692 -1374 3053
14634 -1362 3016
14607 -1353 2987
14612 -1347 2964
14635 -1343 2944
14613 -1334 2915
14599 -1326 2887
14589 -1318 2861
14569 -1309 2832
14655 -1310 2825
14709 -1307 2810
14833 -1311 2808
14902 -1310 2796
14898 -1301 2770
14855 -1290 2736
14854 -1282 2710
14852 -1274 2684
14862 -1267 2660
14856 -1258 2633
14895 -1253 2614
14895 -1245 2588
14915 -1238 2565
14857 -1224 2529
14820 -1212 2497
14820 -1204 2471
14839 -1196 2448
14828 -1186 2420
14896 -1182 2404
14915 -1175 2381
0 0 0
15383 -1192 2400
15322 -1177 2363
15279 -1164 2329
15265 -1153 2300
15282 -1144 2275
15264 -1132 2244
15262 -1121 2217
15269 -1111 2190
15131 -1090 2143
15152 -1081 2118
15128 -1069 2087
15136 -1058 2061
15122 -1046 2032.0001
15118 -1035 2004
15114 -1023 1976
15117 -1011.9999 1948
15074 -998 1915
15107 -988 1891
18798 -1215 2320
18796 -1200 2285
18778 -1185 2249
18751 -1168 2211
18753 -1153 2177
18729 -1136 2139
18742 -1121 2106
18735 -1105 2071
18728 -1089 2036
18721 -1073 2000
18707 -1056 1964
18733 -1042 1932
18694 -1023 1893
18673 -1005 1857
18672 -989 1822
18693 -973 1789
18703 -957 1755
18623 -936 1714
18372 -907 1657
18143 -879 1602
15482 -735 1338
15433 -719 1305
15333 -700 1269
15294 -683 1237
15249 -667 1205
15093 -645 1165
14808 -619 1116
14748 -602 1084
14648 -583 1049
14606 -567 1019.0001
14609 -553 993
14618 -538 966
14567 -521 936
14503 -504 905
14518 -490 879
14523 -475 852
14502 -459 824
14426 -442 793
14417 -426 767
14396 -410 739
14402 -395 713
14399 -380 687
14397 -364 660
14419 -349 635
14437 -333 609
14466 -318 584
14486 -303 559
14511 -287 533
14529 -271 507.00003
11929 -209 395
11797 -193 369
11848 -181 349
11797 -166 327
11785 -153 305
11778 -139 284
11795 -125 263
11793 -112 242
11798 -98 221
11800 -84 200
11794 -70 179
11694 -55 157
11600 -41 135
11554 -27 114
11483 -13 93
11403 0 73
11342 14 52
11283 28 32
11208 42 12
11150 56 -7
11061 69 -26
10979 82 -45
10815 95 -63
10608 106 -80
10404 117 -96
10372 131 -115
10363 144 -132
10361 157 -150
10374 171 -168
10379 184 -186
10367 197 -203
10388 211 -221
10393 225 -238
10385 239 -256
10388 252.99998 -274
10406 267 -291
10407 280 -309
10407 294 -326
10405 308 -343
10404 322 -360
10432 337 -378
10427 351 -395
10433 365 -413
10436 380 -430
10431 394 -446
10448 409 -464
10448 423 -481
10465 438 -498
10454 452 -515
10462 467 -532
10460 481 -548
10464 496 -565
10464 510.99997 -581
10473 526 -598
10480 541 -615
10486 555 -631
10493 570 -648
10491 585 -664
10492 600 -680
10492 615 -696
10497 630 -712
10509 646 -729
6935 436 -491
6912 444 -500
6841 449 -505
6871 461 -517
6810 467 -523
6809 476 -533
6779 484 -540
6765 493 -549
6773 503.00003 -559
6776 513 -570
6810 525 -582
6780 533 -589
6791 544 -600
6791 554 -610
6800 565 -620
6796 574 -629
6793 584 -638
6803 594 -649
6803 604 -658
10027 906 -984
9998 917 -994
9964 929 -1003.9999
9940 941 -1016.0001
9918 954 -1027
9877 964 -1035
9842 975 -1045
9829 988 -1056
9800 1000 -1066
9768 1011.0001 -1075
9736 1021.9999 -1084
9693 1031 -1092
9682 1045 -1103
9647 1055 -1111
9610 1065 -1119
9598 1078 -1130
9556 1087 -1137
9527 1098 -1145
9482 1107 -1151
9449 1117 -1159
9438 1129 -1169
9428 1142 -1179
8981 1101 -1134
8047 998 -1025
8080 1014.0001 -1039
8135 1033 -1056
8021 1030 -1050
7991 1038 -1055
7973 1047 -1062
7959 1057 -1069
7945 1066 -1076
7951 1079 -1086
7959 1092 -1096
7970 1105 -1106
7980 1118 -1116
7987 1130 -1125
8003.0005 1144 -1136
8012 1157 -1146
8026 1170 -1157
8035 1183 -1166
8038.9995 1196 -1175
8043 1208 -1184
8024 1216 -1189
8010 1225 -1196
7989 1234 -1200
7983 1244 -1207
7938 1248 -1208
7922 1257 -1213
7909 1266 -1219
7899 1276 -1225
7906 1288 -1234
7888 1296 -1238
7838 1299 -1238
7835 1309 -1245
7832 1320 -1251
7806 1326 -1254
7788 1334 -1258
7770 1341 -1262
7762 1351 -1267
7736 1357 -1270
7714 1364 -1273
7711 1374 -1279
7690 1380 -1282
7679 1389 -1286
7662 1396 -1290
7648 1404 -1293
7653 1415 -1300
7644 1423 -1305
7613 1428 -1305
7606 1436 -1310
7589 1443 -1313
7571 1450 -1315
7563 1458 -1320
7561 1467 -1325
7572 1479 -1332
7535 1482 -1331
7537 1492 -1337
7515 1497 -1338
7501 1504 -1340
7496 1512 -1345
7485 1519 -1348
7463 1524 -1349
7453 1531 -1351
7454 1541 -1356
7446 1548 -1359
7417 1551 -1359
7430 1563 -1366
7408 1568 -1366
7399 1574 -1369
7385 1580 -1370
7393 1591 -1376
7383 1597 -1378
7356 1600 -1378
7348 1607 -1380
7355 1617 -1385
7332 1621 -1385
7331 1629 -1388
7327 1636 -1391
7316 1642 -1393
7314 1650 -1396
7306 1656 -1397
7304 1664 -1401
7295 1670 -1402
7288 1677 -1404
7289 1685 -1407
7270 1688 -1407
7271 1696 -1410
7252 1699 -1409
7251 1707 -1412
7248 1714 -1414
7237 1719 -1415
7238 1726 -1417
7231 1732 -1419
7212 1735 -1418
7220 1744 -1422
7229 1753 -1426
7221 1758 -1426
7198 1760 -1424
7189 1765 -1424
7204 1775 -1429
7240 1791 -1438
7189 1785 -1431
7193 1793 -1433
7179 1796 -1432
7181 1803 -1434
7179 1809 -1436
7173 1813 -1436
7167 1818 -1436
7162 1823 -1437
7171 1832 -1440
7171 1838 -1441
7166 1843 -1442
7153 1845 -1440
7157 1852 -1442
7146 1855 -1441
7151 1862 -1443
7145 1866 -1443
7157 1875 -1446
7153 1880 -1446
7138 1881 -1443
7158 1892 -1448
7144 1893 -1446
7130 1895 -1444
7143 1903 -1447
7139 1907 -1446
7136 1912 -1446
7132 1916 -1446
7129 1920 -1445
7148 1930 -1449
7147 1934 -1449
7141 1937 -1448
7140 1941 -1447
7147 1948 -1449
7142 1950 -1447
7138 1954 -1446
7142 1959 -1447
7153 1966 -1449
7155 1971 -1448
7132 1968 -1443
7141 1975 -1444
7181 1990 -1452
7144 1983 -1444
7149 1988 -1444
7148 1991 -1443
7154 1997 -1443
7163 2002.0001 -1444
7153 2003 -1441
7159 2007.9999 -1441
7164 2012.0001 -1441
7165 2016 -1440
7177 2022.0001 -1441
7177 2025.0001 -1440
7187 2030.9999 -1440
7171 2029 -1435
7180 2033.9999 -1436
7188 2039 -1436
7181 2040 -1433
7189 2045.0001 -1432
7208 2052 -1434
7198 2052 -1430
7203 2055 -1429
7206 2058 -1428
7214 2062 -1427
7210 2063 -1425
7214 2066 -1423
7222 2070 -1423
7228 2073 -1421
7237 2078 -1421
7224 2075 -1416
7232 2079 -1415
7241 2083 -1414
7249 2087 -1413
7251 2088 -1411
7259 2091 -1409
7263 2094 -1408
7266 2095 -1405
7280 2100 -1405
7280 2101 -1402
7287 2103 -1400
7296 2107 -1399
7292 2106 -1395
7308 2111 -1395
7317 2114 -1393
7326 2117 -1391
7311 2112 -1385
7346 2122 -1388
7345 2122 -1385
7356 2125 -1383
7352 2123 -1379
7371 2129 -1379
7376 2130 -1376
7380 2130 -1373
7392 2133 -1371
7414 2139 -1371
7404 2135 -1365
7417 2138 -1363
7420 2137 -1360
7434 2140 -1358
7440 2141 -1355
7445 2141 -1352
7460 2144 -1350
7473 2146 -1348
7482 2147 -1345
7493 2148 -1343
7507 2151 -1340
7503 2148 -1335
7529 2153 -1335
7543 2155 -1333
7538 2152 -1327
7550 2153 -1324
7557 2152 -1321
7563 2152 -1317
7592 2157 -1317
7590 2154 -1311
7602 2155 -1308
7621 2157 -1306
7641 2160 -1304
7653 2160 -1301
7631 2151 -1292
7664 2157 -1292
7654 2151 -1285
7681 2155 -1284
7694 2155 -1280
7703 2154 -1276
7714 2154 -1272
7712 2149 -1266
7757 2158 -1268
7758 2154 -1262
7778 2156 -1259
7788 2154 -1255
7798 2152 -1251
7818 2153 -1248
7829 2152 -1243
7857 2155 -1242
7856 2150 -1235
7874 2150 -1232
7889 2149 -1228
7901 2147 -1223
7924 2149 -1220
7927 2144 -1214
7946 2144 -1210
7948 2139 -1204
7976 2141 -1202
8000 2142 -1199
8007 2138 -1193
8016 2135 -1188
8022.0005 2130 -1182
8050 2131 -1179
8060.0005 2128 -1173
8071 2125 -1168
8112.0005 2129 -1167
8120 2125 -1161
8128.9995 2120 -1155
8158 2121 -1152
8163.9995 2116 -1146
8191 2116 -1142
8207 2113 -1137
8204 2105 -1129
8229 2104 -1125
8246 2101 -1120
8281 2102 -1117
8287 2096 -1111
8321 2097 -1107
8354 2098 -1104
8371 2094 -1099
8379 2088 -1092
8382 2081 -1085
8393 2075 -1078
8388 2065 -1069
8430 2067 -1067
8453 2064 -1062
8489 2064 -1059
8521 2063 -1055
8708 2099 -1069
8868 2128 -1081
8971 2144 -1085
9071 2158 -1088
9368 2218 -1115
9593 2261 -1132
9623 2258 -1127
9661 2255 -1122
9683 2250 -1115
9719 2246 -1110
9732 2238 -1101
9747 2230 -1094
9771 2224 -1087
9789 2217 -1079
9822 2213 -1073
9836 2204 -1066
9862 2198 -1059
9881 2190 -1051
9921 2187 -1046
9942 2179 -1038
9949 2168 -1029
9989 2163 -1023
10006 2154 -1015
10030 2146 -1007
10062 2140 -1001.0001
10061 2127 -990
10084 2118 -983
10128 2114 -977
10145 2104 -969
10175 2097 -962
10212 2091 -955
10243 2083 -948
10256 2072 -939
